ply
format ascii 1.0
element vertex 1138
property float x
property float y
property float z
property uchar red
property uchar green
property uchar blue
end_header
0.0131601 0.0501414  0.193247 255   0   0
0.0125839 0.0504572  0.193316 255   0   0
0.0124724 0.0507159  0.193442 255   0   0
0.0125931 0.0510175  0.193431 255   0   0
0.0129838  0.051139  0.193349 255   0   0
0.0137774 0.0512032  0.193369 255   0   0
 0.145201 0.0621457  0.178226 255   0   0
0.0147855 0.0511661  0.193345 255   0   0
0.0161511 0.0508019  0.193251 255   0   0
0.0175033 0.0505429  0.192967 255   0   0
0.0191521 0.0502449  0.192515 255   0   0
 0.125739 0.0833876  0.161742 255   0   0
0.125506 0.083311 0.161648 255   0   0
0.125259 0.083308 0.161575 255   0   0
 0.125045 0.0831512  0.161522 255   0   0
 0.124815 0.0830488   0.16149 255   0   0
 0.124639 0.0827771  0.161409 255   0   0
 0.124308 0.0825647  0.161332 255   0   0
 0.124035 0.0823533  0.161247 255   0   0
 0.123907 0.0821104  0.161139 255   0   0
 0.123763 0.0818239   0.16099 255   0   0
0.0209128 0.0498804  0.191931 255   0   0
 0.123578 0.0814317  0.160805 255   0   0
0.123409 0.081238  0.16059 255   0   0
 0.123235 0.0809196  0.160342 255   0   0
 0.123154 0.0807283  0.160048 255   0   0
 0.123053 0.0804731  0.159731 255   0   0
 0.122888 0.0802674  0.159341 255   0   0
 0.122751 0.0801803  0.158908 255   0   0
 0.122603 0.0801727  0.158439 255   0   0
 0.122382 0.0802045  0.157948 255   0   0
 0.122151 0.0803347  0.157385 255   0   0
0.0229815 0.0494965  0.191431 255   0   0
 0.121925 0.0804546  0.156712 255   0   0
 0.121762 0.0806949  0.155943 255   0   0
 0.121479 0.0810887   0.15506 255   0   0
 0.121243 0.0816903  0.154132 255   0   0
 0.120939 0.0822992  0.153145 255   0   0
 0.120628 0.0828921  0.152096 255   0   0
0.120272 0.083611 0.150937 255   0   0
 0.119992 0.0843473   0.14963 255   0   0
 0.119528 0.0851594  0.148221 255   0   0
 0.119087 0.0862705   0.14676 255   0   0
0.0252585 0.0491524  0.190992 255   0   0
 0.118543 0.0872685  0.145314 255   0   0
 0.118004 0.0881978  0.143919 255   0   0
 0.117321 0.0892754  0.142512 255   0   0
 0.116642 0.0903919   0.14109 255   0   0
 0.115799 0.0917293  0.139695 255   0   0
 0.114955 0.0930637  0.138342 255   0   0
 0.113934 0.0945658  0.137037 255   0   0
 0.112888 0.0961884  0.135838 255   0   0
 0.111766 0.0979474  0.134721 255   0   0
 0.110573 0.0998148    0.1337 255   0   0
0.0278721 0.0486181  0.190641 255   0   0
0.109333 0.101609 0.132819 255   0   0
0.107984 0.103379 0.132076 255   0   0
0.106565 0.105104 0.131516 255   0   0
0.105108 0.106901  0.13111 255   0   0
0.103642 0.108768 0.130909 255   0   0
0.102102 0.110456 0.131048 255   0   0
0.100512 0.111944 0.131536 255   0   0
0.0988565  0.113024  0.132291 255   0   0
0.0971307  0.113856   0.13318 255   0   0
0.0954906  0.114677  0.134161 255   0   0
0.0306101 0.0478384   0.19005 255   0   0
0.0937738  0.115367  0.135226 255   0   0
0.0921496  0.115898  0.136439 255   0   0
0.0905015  0.116325   0.13778 255   0   0
0.088913 0.116512 0.139302 255   0   0
0.0873223  0.116429  0.140916 255   0   0
0.085781  0.11625 0.142644 255   0   0
0.0842592  0.115722  0.144522 255   0   0
0.0828804  0.115051  0.146563 255   0   0
0.0815754  0.114228  0.148699 255   0   0
0.0803792  0.113279  0.150888 255   0   0
0.0332169 0.0475136  0.189129 255   0   0
 0.144241 0.0623379  0.178479 255   0   0
0.0793586  0.112222  0.153229 255   0   0
0.0783997  0.110844  0.155813 255   0   0
0.0774305   0.10921  0.158504 255   0   0
0.076576 0.107513 0.161252 255   0   0
0.0759363  0.105809   0.16398 255   0   0
0.0753729  0.104046   0.16665 255   0   0
0.0749534  0.102142   0.16933 255   0   0
0.0746518  0.100198  0.172038 255   0   0
0.0743722 0.0980377   0.17485 255   0   0
0.0741752 0.0957145  0.177735 255   0   0
0.0358623 0.0470753  0.188015 255   0   0
0.0741823 0.0932639  0.180605 255   0   0
0.0742786 0.0907814  0.183495 255   0   0
0.0745471 0.0882842  0.186618 255   0   0
0.0745648 0.0853791  0.189949 255   0   0
0.0746438 0.0824884  0.193294 255   0   0
0.074685  0.07987 0.196493 255   0   0
0.0749756 0.0773309   0.19967 255   0   0
0.0753507 0.0749582  0.202743 255   0   0
0.0761649 0.0722251  0.205824 255   0   0
0.0770882 0.0695422  0.208936 255   0   0
0.0387139 0.0466951   0.18706 255   0   0
0.0781265 0.0671138  0.211937 255   0   0
0.0790659 0.0643236  0.214724 255   0   0
 0.080178 0.0614642  0.217382 255   0   0
 0.081517 0.0585799  0.219955 255   0   0
0.0829555 0.0554589  0.222506 255   0   0
0.0843727 0.0525272  0.224844 255   0   0
0.0860888 0.0499081  0.227127 255   0   0
0.0878517 0.0471844   0.22925 255   0   0
0.0893651 0.0443664   0.23115 255   0   0
0.0909747 0.0416472  0.232966 255   0   0
0.0416415 0.0463299  0.186207 255   0   0
0.0928162 0.0387082  0.234478 255   0   0
 0.094873 0.0362293  0.235778 255   0   0
0.097212 0.034184 0.236937 255   0   0
0.0998295 0.0323674  0.237895 255   0   0
 0.102238 0.0303094   0.23859 255   0   0
 0.104591 0.0283007  0.239187 255   0   0
 0.107046 0.0262432  0.239578 255   0   0
 0.109375 0.0246357   0.23997 255   0   0
 0.111849 0.0232205  0.240258 255   0   0
 0.114354 0.0215894  0.240337 255   0   0
0.0448389 0.0456644  0.185529 255   0   0
 0.116662 0.0199192  0.240434 255   0   0
 0.119265 0.0182124  0.240424 255   0   0
 0.121811 0.0162405  0.240361 255   0   0
 0.12433 0.014128  0.24014 255   0   0
 0.127049 0.0124165  0.239767 255   0   0
 0.129456 0.0107245   0.23928 255   0   0
  0.132194 0.00905865   0.238554 255   0   0
  0.134788 0.00753429   0.237681 255   0   0
  0.137007 0.00589788   0.236779 255   0   0
  0.139236 0.00427884   0.235658 255   0   0
0.0481135 0.0449741   0.18477 255   0   0
  0.141769 0.00293958   0.234481 255   0   0
   0.1443 0.0018497  0.233223 255   0   0
   0.146969 0.000632931    0.231825 255   0   0
    0.149488 -0.000268688     0.230396 255   0   0
   0.151914 -0.00116579    0.228852 255   0   0
   0.154318 -0.00207119    0.227096 255   0   0
   0.156786 -0.00250159    0.225477 255   0   0
   0.159399 -0.00310972     0.22361 255   0   0
   0.161951 -0.00327208    0.221721 255   0   0
   0.163208 -0.00271412    0.220204 255   0   0
0.0512594 0.0441691  0.183572 255   0   0
   0.165082 -0.00215211    0.218175 255   0   0
   0.168138 -0.00380763    0.214395 255   0   0
   0.170591 -0.00319246    0.211623 255   0   0
   0.172637 -0.00270305    0.208708 255   0   0
   0.173928 -0.00271138     0.20576 255   0   0
   0.176866 -0.00227281    0.202579 255   0   0
 0.179055 -0.001985  0.199467 255   0   0
   0.181721 -0.00135821    0.196081 255   0   0
    0.183205 -0.000793586     0.193016 255   0   0
    0.185075 -0.000152858     0.189752 255   0   0
0.0542803 0.0442601  0.182321 255   0   0
 0.186886 0.0004703  0.186576 255   0   0
  0.188594 0.00104761   0.183329 255   0   0
  0.190277 0.00179207   0.180236 255   0   0
  0.192474 0.00287017   0.176759 255   0   0
 0.193277 0.0035603  0.173836 255   0   0
  0.194592 0.00448577   0.170796 255   0   0
  0.196033 0.00537044   0.167763 255   0   0
  0.197345 0.00635511   0.164871 255   0   0
  0.198515 0.00734011   0.161983 255   0   0
  0.198613 0.00871768   0.159825 255   0   0
 0.057651 0.0447417  0.181358 255   0   0
  0.200024 0.00959386   0.156445 255   0   0
 0.200636 0.0108512   0.15377 255   0   0
 0.201298 0.0121719   0.15122 255   0   0
 0.202017 0.0135848  0.148741 255   0   0
 0.202538 0.0150179  0.146407 255   0   0
 0.202781 0.0165142  0.144106 255   0   0
 0.202777 0.0180632  0.141841 255   0   0
 0.202609 0.0197852  0.139577 255   0   0
 0.202171 0.0216316  0.137452 255   0   0
 0.201682 0.0235946   0.13536 255   0   0
0.0613454 0.0449781  0.180611 255   0   0
 0.201151 0.0256863  0.133451 255   0   0
 0.200553 0.0276376  0.131513 255   0   0
 0.199848 0.0295879  0.129657 255   0   0
  0.1989 0.031487 0.127807 255   0   0
  0.19777 0.0335033  0.126156 255   0   0
 0.196608 0.0355973  0.124595 255   0   0
 0.195233 0.0375854  0.123172 255   0   0
 0.193696 0.0394016  0.121829 255   0   0
 0.192225 0.0412585  0.120582 255   0   0
  0.19053 0.0428582  0.119392 255   0   0
0.0652826  0.045137  0.180139 255   0   0
 0.143212 0.0624933   0.17863 255   0   0
0.188836 0.044522  0.11831 255   0   0
 0.186851 0.0462186  0.117319 255   0   0
 0.184604 0.0479707  0.116436 255   0   0
 0.182125 0.0497101  0.115569 255   0   0
 0.179458 0.0514191  0.114755 255   0   0
 0.176712 0.0530596  0.114028 255   0   0
 0.173853 0.0547401  0.113747 255   0   0
0.170971 0.056036  0.11321 255   0   0
 0.167958 0.0572398  0.112761 255   0   0
 0.164737 0.0583863  0.112382 255   0   0
0.0693685 0.0452742  0.179586 255   0   0
 0.161145 0.0597223  0.112297 255   0   0
  0.15748 0.0608744  0.112148 255   0   0
  0.15389 0.0618053   0.11208 255   0   0
 0.150294 0.0627254   0.11219 255   0   0
 0.146594 0.0634975  0.112213 255   0   0
 0.142657 0.0642753  0.112326 255   0   0
 0.138374 0.0653332  0.112772 255   0   0
 0.134088 0.0660462  0.113084 255   0   0
0.129866 0.066853 0.113658 255   0   0
  0.12576 0.0672206  0.114043 255   0   0
0.0733274 0.0453708  0.178821 255   0   0
 0.121517 0.0676504  0.114439 255   0   0
 0.117034 0.0683832  0.115026 255   0   0
 0.112483 0.0691058   0.11566 255   0   0
0.108025 0.070309 0.116541 255   0   0
 0.103513 0.0710512  0.117528 255   0   0
0.0990434 0.0716147  0.118558 255   0   0
0.0947734 0.0724307  0.119722 255   0   0
0.0904216 0.0730281  0.120676 255   0   0
0.0859603 0.0736868  0.121629 255   0   0
0.0815759  0.074353  0.122663 255   0   0
0.0771437 0.0456195   0.17804 255   0   0
0.0773926 0.0751714  0.123765 255   0   0
 0.073092 0.0756518  0.124817 255   0   0
0.0687849 0.0761432  0.125793 255   0   0
0.0644862 0.0767276  0.126852 255   0   0
0.0603155 0.0773276  0.128021 255   0   0
0.0561689   0.07799  0.129265 255   0   0
0.0523219 0.0782344  0.130474 255   0   0
 0.048415 0.0784797  0.131592 255   0   0
0.0445361 0.0788163  0.132643 255   0   0
0.0407795 0.0792572  0.133708 255   0   0
0.0810239 0.0458161  0.177335 255   0   0
0.0371276 0.0798822  0.134796 255   0   0
0.0337303 0.0801656  0.135739 255   0   0
0.0305844 0.0804092  0.136599 255   0   0
0.0274958 0.0806222  0.137321 255   0   0
0.0245586 0.0809202  0.137996 255   0   0
0.0217793 0.0813339  0.138628 255   0   0
0.0193913 0.0815181  0.139298 255   0   0
0.0171956 0.0815286  0.139836 255   0   0
0.0152762 0.0816602  0.140384 255   0   0
0.0136639 0.0816647  0.140899 255   0   0
  0.08529 0.0460113  0.176852 255   0   0
0.0124454 0.0815102  0.141331 255   0   0
0.0116247 0.0811839  0.141649 255   0   0
0.0112356 0.0804596  0.141818 255   0   0
0.0109961 0.0797082  0.141707 255   0   0
 0.010947 0.0789612  0.141489 255   0   0
0.0112034 0.0780092    0.1412 255   0   0
0.0116687 0.0771071   0.14069 255   0   0
0.0124117 0.0762361  0.140077 255   0   0
0.0134662 0.0753163  0.139358 255   0   0
  0.01481 0.0743327  0.138528 255   0   0
0.0897037  0.045964   0.17643 255   0   0
  0.01634 0.0733479  0.137474 255   0   0
0.0179819 0.0725024  0.136206 255   0   0
0.0198634 0.0716139  0.134804 255   0   0
0.0218218 0.0707661  0.133209 255   0   0
0.0238223 0.0700099    0.1315 255   0   0
0.0259116 0.0693932  0.129925 255   0   0
0.0282403 0.0688311  0.128453 255   0   0
0.0306522 0.0681735  0.126967 255   0   0
0.0331299  0.067604  0.125549 255   0   0
0.0357521 0.0670688  0.124248 255   0   0
0.0942421 0.0460044   0.17606 255   0   0
0.0384863 0.0665756  0.122935 255   0   0
 0.041322 0.0661251  0.121682 255   0   0
0.0443018 0.0655343  0.120473 255   0   0
 0.047228 0.0650126  0.119224 255   0   0
 0.050189 0.0644551   0.11813 255   0   0
0.0533022 0.0638505  0.117129 255   0   0
 0.056606 0.0631568  0.116236 255   0   0
0.0601285 0.0623527  0.115327 255   0   0
 0.063685 0.0617975  0.114531 255   0   0
0.0672323 0.0614346  0.113765 255   0   0
0.0987295 0.0460989  0.175653 255   0   0
0.0709029 0.0609697  0.113091 255   0   0
0.0745359 0.0608598  0.112533 255   0   0
0.0784539 0.0604309  0.112046 255   0   0
0.0822396 0.0602448  0.111566 255   0   0
0.0858804 0.0602636  0.111131 255   0   0
0.0895035 0.0602824   0.11087 255   0   0
0.0930019 0.0605685  0.110816 255   0   0
0.0965176 0.0609584  0.110933 255   0   0
   0.1002 0.0613048  0.111166 255   0   0
 0.103896 0.0615809  0.111431 255   0   0
 0.103048 0.0461621  0.175207 255   0   0
 0.107419 0.0621206  0.111786 255   0   0
 0.110826 0.0629083  0.112261 255   0   0
 0.114145 0.0637597   0.11287 255   0   0
 0.117315 0.0647655  0.113534 255   0   0
0.120288 0.065849 0.114267 255   0   0
 0.123081 0.0670175  0.115154 255   0   0
 0.125693 0.0682504   0.11623 255   0   0
 0.128107 0.0695911  0.117463 255   0   0
 0.130318 0.0711376  0.118881 255   0   0
 0.132432 0.0725777  0.120432 255   0   0
 0.107464 0.0460653  0.174702 255   0   0
 0.142223 0.0627072   0.17871 255   0   0
0.134492 0.073866 0.122094 255   0   0
 0.136374 0.0752494  0.123905 255   0   0
 0.137893 0.0766754  0.125909 255   0   0
0.139289 0.078088 0.128164 255   0   0
 0.140623 0.0792222  0.130582 255   0   0
 0.141765 0.0802887  0.133142 255   0   0
 0.142785 0.0812483   0.13585 255   0   0
 0.143696 0.0820658  0.138693 255   0   0
 0.144474 0.0827119  0.141684 255   0   0
0.145118 0.083103 0.144759 255   0   0
 0.111859 0.0459011  0.174145 255   0   0
 0.145534 0.0833571  0.147922 255   0   0
 0.145721 0.0833177  0.151137 255   0   0
 0.145668 0.0829913  0.154531 255   0   0
 0.145388 0.0821845  0.157969 255   0   0
 0.144906 0.0811353  0.161548 255   0   0
 0.144444 0.0796556  0.165211 255   0   0
 0.143856 0.0779517  0.168985 255   0   0
  0.14321 0.0760821   0.17273 255   0   0
 0.142414 0.0739622   0.17638 255   0   0
 0.141518 0.0717045  0.179895 255   0   0
 0.116286 0.0456134  0.173539 255   0   0
 0.140514 0.0693482  0.183389 255   0   0
 0.139189 0.0667485  0.186894 255   0   0
 0.137981 0.0641288  0.190308 255   0   0
 0.136833 0.0612239  0.193616 255   0   0
 0.135481 0.0584014   0.19693 255   0   0
 0.134122 0.0557454  0.200158 255   0   0
 0.133018 0.0533587   0.20339 255   0   0
 0.131765 0.0510408  0.206567 255   0   0
 0.130792 0.0484453  0.209584 255   0   0
 0.12982 0.046025 0.212613 255   0   0
 0.120796 0.0454621  0.172984 255   0   0
 0.128781 0.0438259  0.215593 255   0   0
 0.127601 0.0416968  0.218525 255   0   0
 0.126734 0.0396588  0.221172 255   0   0
 0.125789 0.0382131  0.223879 255   0   0
 0.124918 0.0365608  0.226361 255   0   0
0.124365 0.034976 0.228817 255   0   0
0.123854 0.033283 0.231214 255   0   0
 0.123222 0.0314354  0.233419 255   0   0
 0.122515 0.0298849  0.235512 255   0   0
  0.12205 0.0287749  0.237598 255   0   0
 0.125552 0.0454546  0.172485 255   0   0
 0.121725 0.0276101  0.239539 255   0   0
 0.121391 0.0265252  0.241472 255   0   0
 0.121231 0.0251253  0.243306 255   0   0
 0.120805 0.0240011  0.245198 255   0   0
 0.120502 0.0228563   0.24697 255   0   0
0.120292 0.021662 0.248589 255   0   0
 0.120251 0.0207129  0.250198 255   0   0
  0.12032 0.0198302  0.251772 255   0   0
 0.120422 0.0190385  0.253155 255   0   0
 0.120493 0.0182079  0.254361 255   0   0
 0.130357 0.0456398  0.172011 255   0   0
 0.120526 0.0173679  0.255297 255   0   0
 0.120688 0.0168432  0.256099 255   0   0
 0.121007 0.0161751  0.256873 255   0   0
 0.121057 0.0154776   0.25759 255   0   0
 0.118765 0.0172755  0.258885 255   0   0
 0.119161 0.0170542  0.259485 255   0   0
 0.122419 0.0139712  0.258942 255   0   0
 0.122958 0.0137422  0.259197 255   0   0
 0.123253 0.0131934  0.259461 255   0   0
 0.123394 0.0126793  0.259671 255   0   0
 0.135061 0.0457956  0.171477 255   0   0
 0.123697 0.0121566  0.259467 255   0   0
  0.12419 0.0117799  0.258901 255   0   0
 0.124797 0.0117537  0.258059 255   0   0
 0.125338 0.0116514  0.256843 255   0   0
 0.125797 0.0117346  0.255417 255   0   0
 0.126323 0.0118237  0.253781 255   0   0
 0.126788 0.0118443  0.252026 255   0   0
 0.127365 0.0120382   0.25006 255   0   0
 0.128054 0.0119975  0.247845 255   0   0
 0.128782 0.0124722  0.245546 255   0   0
  0.13971 0.0459295  0.170934 255   0   0
 0.129679 0.0129747  0.243047 255   0   0
0.130346 0.013765 0.240513 255   0   0
 0.130966 0.0146132  0.237925 255   0   0
 0.131785 0.0154416  0.235105 255   0   0
 0.132436 0.0162384  0.232207 255   0   0
 0.133253 0.0171258   0.22913 255   0   0
 0.134141 0.0180412  0.225907 255   0   0
0.134969 0.019246 0.222661 255   0   0
  0.13595 0.0203299  0.219226 255   0   0
 0.136952 0.0216343  0.215711 255   0   0
 0.144499 0.0460121  0.170363 255   0   0
 0.138013 0.0229122  0.212036 255   0   0
 0.139123 0.0242794   0.20827 255   0   0
 0.140082 0.0257276  0.204374 255   0   0
 0.141365 0.0271859  0.200227 255   0   0
 0.142811 0.0290919   0.19626 255   0   0
 0.144255 0.0309701  0.192342 255   0   0
 0.145434 0.0328679   0.18853 255   0   0
 0.146572 0.0347855  0.184625 255   0   0
 0.147795 0.0369057  0.180733 255   0   0
 0.149144 0.0390744  0.176862 255   0   0
  0.14937 0.0462213   0.16976 255   0   0
 0.150434 0.0413356  0.173124 255   0   0
 0.151708 0.0438146  0.169549 255   0   0
 0.152783 0.0462761  0.166071 255   0   0
 0.153706 0.0486878  0.162601 255   0   0
 0.154635 0.0512345  0.159117 255   0   0
 0.155575 0.0538075  0.155672 255   0   0
 0.156436 0.0563024  0.152357 255   0   0
  0.15727 0.0589791  0.149214 255   0   0
 0.157846 0.0614814  0.146255 255   0   0
 0.158204 0.0639759  0.143395 255   0   0
 0.154054 0.0467784  0.169192 255   0   0
0.141362 0.063016 0.178756 255   0   0
 0.158466 0.0665297  0.140576 255   0   0
 0.158761 0.0690611  0.137787 255   0   0
 0.158993 0.0718003  0.135172 255   0   0
  0.15912 0.0748078  0.132765 255   0   0
0.158938 0.077722 0.130526 255   0   0
 0.158633 0.0807878  0.128405 255   0   0
 0.158111 0.0839038  0.126414 255   0   0
 0.157388 0.0870466  0.124543 255   0   0
 0.156448 0.0902832  0.122818 255   0   0
 0.155244 0.0935664  0.121291 255   0   0
 0.158591 0.0473118  0.168558 255   0   0
 0.153894 0.0969983  0.119936 255   0   0
0.152521 0.100512 0.118819 255   0   0
0.150705 0.103912 0.118013 255   0   0
0.148561  0.10723 0.117506 255   0   0
 0.14619 0.110581 0.117167 255   0   0
0.143668 0.113957 0.116929 255   0   0
0.141053 0.117255  0.11688 255   0   0
0.138279 0.120528 0.117054 255   0   0
0.135045 0.123717 0.117402 255   0   0
0.131705 0.126819 0.117854 255   0   0
 0.162964 0.0477688  0.168042 255   0   0
0.128311 0.129884 0.118384 255   0   0
0.124853 0.132955 0.118894 255   0   0
  0.1211 0.135831 0.119577 255   0   0
0.117572 0.138969 0.120299 255   0   0
 0.11373 0.141888 0.121193 255   0   0
 0.10978 0.144742 0.122229 255   0   0
0.105965 0.147358 0.123393 255   0   0
0.101818 0.150073  0.12476 255   0   0
0.0977533  0.152429   0.12633 255   0   0
0.0934484  0.154751  0.127882 255   0   0
 0.167572 0.0479961  0.167487 255   0   0
0.0892782  0.156841  0.129524 255   0   0
0.0850851   0.15875  0.131197 255   0   0
0.0811567  0.160544  0.133091 255   0   0
0.0770088  0.162013  0.134982 255   0   0
0.0728258  0.163336   0.13689 255   0   0
0.0688356   0.16442  0.138833 255   0   0
0.0650043  0.165292  0.140804 255   0   0
0.0614936  0.165979  0.142968 255   0   0
0.0577896  0.166285  0.145114 255   0   0
0.0540765  0.166283  0.147282 255   0   0
 0.172183 0.0482806   0.16701 255   0   0
0.050837 0.165998 0.149782 255   0   0
0.0475964  0.165099  0.152372 255   0   0
0.0442635    0.1637  0.154888 255   0   0
0.0411502  0.162349  0.157303 255   0   0
0.0380944  0.160289  0.159715 255   0   0
0.0354181  0.158006  0.162059 255   0   0
0.0328561  0.155655  0.164273 255   0   0
0.0302988  0.152446   0.16644 255   0   0
0.0278618  0.148991  0.168346 255   0   0
0.0257773  0.146175  0.170191 255   0   0
 0.176718 0.0486784  0.166439 255   0   0
0.0239461  0.143169  0.171983 255   0   0
0.0224264    0.1396  0.173975 255   0   0
0.0210208  0.135671   0.17588 255   0   0
0.0198097  0.131169  0.177798 255   0   0
0.0185595  0.126779  0.179409 255   0   0
0.0174422   0.12241  0.180762 255   0   0
0.0164244  0.117815  0.182009 255   0   0
0.0157683  0.113246  0.183264 255   0   0
0.0153488  0.108659  0.184473 255   0   0
0.015132 0.104526 0.185607 255   0   0
 0.181047 0.0491579  0.165789 255   0   0
0.0151016  0.100355  0.186701 255   0   0
0.0149901 0.0965588  0.187677 255   0   0
0.0154756 0.0920582  0.188808 255   0   0
0.0158838 0.0878905  0.189709 255   0   0
0.0164843 0.0833243  0.190403 255   0   0
0.0174627  0.079135  0.191229 255   0   0
0.0185371 0.0752012  0.191962 255   0   0
0.0198729 0.0710641  0.192628 255   0   0
0.0212179 0.0671582  0.193177 255   0   0
0.0227359 0.0630441   0.19353 255   0   0
  0.18523 0.0495681  0.165209 255   0   0
0.0243783 0.0591015  0.193726 255   0   0
 0.026348 0.0554599  0.193959 255   0   0
0.0283408 0.0525883  0.194374 255   0   0
0.0307707 0.0492581  0.194687 255   0   0
0.0333453 0.0459201  0.194908 255   0   0
0.0364483 0.0421575  0.194993 255   0   0
0.0394456 0.0386617  0.194863 255   0   0
0.0425272 0.0355163  0.194605 255   0   0
0.0458881  0.032456   0.19431 255   0   0
0.0491466 0.0296539  0.193906 255   0   0
 0.189554 0.0498064  0.164604 255   0   0
0.0527054 0.0267489   0.19335 255   0   0
0.0562833  0.024195  0.192829 255   0   0
0.060046 0.021562   0.1921 255   0   0
0.0637509 0.0191781  0.191306 255   0   0
0.0673681 0.0169202   0.19032 255   0   0
0.0711341 0.0149271  0.189372 255   0   0
0.0748342 0.0132364  0.188354 255   0   0
0.0785903 0.0116002  0.187256 255   0   0
0.0823816 0.0102837  0.186207 255   0   0
 0.0861858 0.00914252   0.185197 255   0   0
  0.19389 0.0501276  0.164035 255   0   0
 0.0899548 0.00811861    0.18417 255   0   0
 0.0936932 0.00729457   0.183132 255   0   0
 0.0974797 0.00654862   0.182107 255   0   0
  0.101284 0.00606864    0.18117 255   0   0
  0.105057 0.00570589   0.180179 255   0   0
  0.108848 0.00539382   0.179073 255   0   0
  0.112469 0.00542719   0.178028 255   0   0
  0.116141 0.00576699   0.177056 255   0   0
  0.119693 0.00614379   0.176056 255   0   0
   0.12359 0.00656443    0.17506 255   0   0
 0.198346 0.0505474  0.163469 255   0   0
 0.140464 0.0631587  0.178799 255   0   0
   0.12737 0.00709875    0.17404 255   0   0
  0.131082 0.00782268   0.173091 255   0   0
  0.134743 0.00872435   0.172109 255   0   0
  0.138278 0.00985536   0.171274 255   0   0
0.141991  0.01101 0.170395 255   0   0
 0.145586 0.0122617  0.169684 255   0   0
 0.149143 0.0134991  0.168848 255   0   0
 0.152599 0.0149496  0.168119 255   0   0
 0.156009 0.0164627  0.167446 255   0   0
 0.159285 0.0179532  0.166787 255   0   0
0.202581 0.050834 0.163012 255   0   0
 0.162571 0.0195567  0.166115 255   0   0
 0.165658 0.0213249  0.165463 255   0   0
 0.168633 0.0232984  0.164845 255   0   0
 0.171544 0.0254161  0.164104 255   0   0
 0.174289 0.0277057  0.163401 255   0   0
 0.176783 0.0300603  0.162703 255   0   0
 0.179245 0.0326009  0.162097 255   0   0
 0.181646 0.0350597  0.161442 255   0   0
 0.183864 0.0377049  0.160829 255   0   0
 0.185922 0.0407455  0.160179 255   0   0
 0.206824 0.0510896  0.162606 255   0   0
0.187675 0.043963 0.159616 255   0   0
 0.189194 0.0473255  0.159154 255   0   0
 0.19068 0.050549 0.158706 255   0   0
 0.192065 0.0537664  0.158331 255   0   0
 0.193283 0.0572009  0.157963 255   0   0
  0.19437 0.0608708  0.157583 255   0   0
 0.195358 0.0648048  0.157234 255   0   0
 0.196002 0.0686549    0.1572 255   0   0
 0.196761 0.0725439  0.157146 255   0   0
 0.197476 0.0763135  0.157123 255   0   0
 0.211499 0.0504185  0.161768 255   0   0
 0.198136 0.0801724  0.157066 255   0   0
 0.198697 0.0842956   0.15711 255   0   0
 0.198982 0.0882495  0.157246 255   0   0
  0.19916 0.0923867  0.157509 255   0   0
 0.199404 0.0961755  0.157946 255   0   0
 0.199739 0.0997231   0.15836 255   0   0
0.200044  0.10326 0.158643 255   0   0
0.200194 0.106873 0.158874 255   0   0
0.200114 0.110464 0.159278 255   0   0
 0.19995 0.113769  0.15984 255   0   0
 0.215245 0.0511817   0.16162 255   0   0
0.199831 0.116711 0.160597 255   0   0
0.199865 0.119297 0.161372 255   0   0
0.199835 0.121782 0.162063 255   0   0
0.199784 0.124311  0.16266 255   0   0
0.199472 0.126905 0.163296 255   0   0
 0.19903 0.129449 0.164179 255   0   0
0.198366 0.131695 0.165289 255   0   0
0.197908 0.133729 0.166435 255   0   0
0.197433 0.135742 0.167484 255   0   0
0.196848 0.137734 0.168432 255   0   0
 0.219357 0.0521361  0.161198 255   0   0
0.196191 0.139926 0.169327 255   0   0
0.195371 0.142505 0.170181 255   0   0
0.194188 0.145034 0.171261 255   0   0
0.193011 0.147777 0.172358 255   0   0
0.191736 0.150487 0.173441 255   0   0
0.190244 0.153302 0.174498 255   0   0
0.188714 0.156203 0.175396 255   0   0
0.186912 0.159541 0.176262 255   0   0
0.184902 0.163059 0.177355 255   0   0
0.182615 0.166517  0.17846 255   0   0
 0.222986 0.0520571  0.160509 255   0   0
0.180266 0.169584 0.179526 255   0   0
 0.17777 0.172468 0.180642 255   0   0
0.175014 0.174719 0.182013 255   0   0
  0.1728 0.178099 0.182387 255   0   0
0.170028 0.180841 0.183196 255   0   0
0.167305 0.183588 0.183872 255   0   0
0.164337 0.186018 0.184607 255   0   0
0.161333 0.188146  0.18536 255   0   0
 0.15837 0.189884  0.18609 255   0   0
0.155209 0.191577 0.186762 255   0   0
 0.227437 0.0509881  0.159426 255   0   0
0.151979 0.192842 0.187507 255   0   0
 0.14865 0.193895 0.188247 255   0   0
0.145471 0.194653 0.188777 255   0   0
0.142213 0.194507 0.189667 255   0   0
0.139144 0.194866 0.189873 255   0   0
0.136042 0.194297 0.190479 255   0   0
0.133069 0.193187 0.191069 255   0   0
0.130019 0.191784 0.191648 255   0   0
0.126771 0.190124 0.192277 255   0   0
0.123742 0.187951 0.193005 255   0   0
 0.230511 0.0511341  0.159839 255   0   0
0.120624 0.185331 0.193681 255   0   0
0.117796 0.182636 0.194114 255   0   0
0.115014 0.179806 0.194433 255   0   0
0.112094 0.176526 0.194878 255   0   0
0.109318 0.172939 0.195293 255   0   0
0.106741 0.169115 0.195784 255   0   0
0.103682 0.165191 0.196283 255   0   0
0.101527  0.16108 0.196849 255   0   0
0.098732 0.156696 0.197541 255   0   0
0.0965594  0.151317  0.198297 255   0   0
 0.234951 0.0504308  0.158177 255   0   0
0.0941386  0.146145  0.198861 255   0   0
0.0918644  0.141145  0.199271 255   0   0
0.0894001  0.135814  0.199583 255   0   0
0.0870167  0.130294  0.199813 255   0   0
0.0847948  0.124635  0.199902 255   0   0
0.0826507  0.118936  0.199864 255   0   0
0.0806135  0.113168  0.199732 255   0   0
0.0785354  0.107908  0.199479 255   0   0
0.0771532  0.101564  0.199323 255   0   0
0.0757474 0.0955984  0.199079 255   0   0
0.237665 0.052178  0.15851 255   0   0
 0.139705 0.0632124  0.178825 255   0   0
0.0743739 0.0894325  0.198733 255   0   0
0.0732276 0.0836873  0.198242 255   0   0
0.0722593 0.0775538  0.197646 255   0   0
0.0713882 0.0716725  0.197009 255   0   0
0.0706289 0.0657376  0.196245 255   0   0
0.0700159 0.0598935  0.195382 255   0   0
0.0697141 0.0543638  0.194545 255   0   0
0.0695939 0.0490938  0.193662 255   0   0
0.0697083 0.0439346  0.192732 255   0   0
0.0700012 0.0389729  0.191799 255   0   0
 0.240858 0.0524922   0.15842 255   0   0
0.0706171 0.0342853  0.190827 255   0   0
0.0714077 0.0298673  0.189799 255   0   0
0.0724037 0.0256816  0.188625 255   0   0
0.0737635 0.0218796   0.18739 255   0   0
0.0752669 0.0181666  0.186033 255   0   0
0.0768661 0.0146976  0.184727 255   0   0
0.0787139 0.0112127  0.183528 255   0   0
 0.080673 0.0078747   0.18243 255   0   0
 0.0827352 0.00481278   0.181303 255   0   0
 0.0850249 0.00205601   0.180232 255   0   0
 0.244196 0.0528125  0.158318 255   0   0
   0.0873103 -0.000604985     0.179049 255   0   0
   0.089699 -0.00301583    0.177979 255   0   0
  0.0920349 -0.00548233    0.176764 255   0   0
  0.0944799 -0.00764946    0.175627 255   0   0
  0.0969623 -0.00949018    0.174597 255   0   0
 0.0996212 -0.0108484   0.173734 255   0   0
  0.102168 -0.0117783   0.172975 255   0   0
  0.104887 -0.0126532   0.172206 255   0   0
   0.10762 -0.0135813   0.171568 255   0   0
  0.110517 -0.0144463   0.171126 255   0   0
 0.246448 0.0532538  0.158809 255   0   0
  0.113312 -0.0149328   0.170749 255   0   0
  0.116126 -0.0147694   0.170418 255   0   0
  0.118907 -0.0141005   0.170139 255   0   0
  0.121262 -0.0127688   0.170242 255   0   0
  0.124496 -0.0121223   0.170142 255   0   0
   0.12741 -0.0111085   0.170347 255   0   0
  0.130193 -0.0096447   0.170697 255   0   0
    0.13301 -0.00764365    0.171085 255   0   0
   0.135599 -0.00514971     0.17164 255   0   0
   0.138241 -0.00241781    0.172316 255   0   0
 0.250285 0.0529284  0.156939 255   0   0
   0.140822 0.000152944    0.173103 255   0   0
 0.14358 0.002758 0.174015 255   0   0
  0.146141 0.00560504   0.175109 255   0   0
  0.148558 0.00870881   0.176148 255   0   0
 0.150815 0.0120755  0.177238 255   0   0
0.153018 0.015412 0.178378 255   0   0
0.155113 0.018663  0.17957 255   0   0
  0.15731 0.0218916   0.18068 255   0   0
 0.159341 0.0252384  0.181799 255   0   0
 0.161188 0.0288569  0.182923 255   0   0
 0.252517 0.0529787  0.156993 255   0   0
 0.162986 0.0324363  0.184014 255   0   0
 0.164694 0.0359371  0.185182 255   0   0
 0.166331 0.0394038   0.18663 255   0   0
 0.167977 0.0428081  0.188008 255   0   0
 0.169447 0.0463539  0.189424 255   0   0
0.170752 0.049925  0.19077 255   0   0
 0.171982 0.0538311  0.192122 255   0   0
 0.172964 0.0577096  0.193573 255   0   0
  0.17373 0.0614229  0.195232 255   0   0
 0.174498 0.0650525  0.196984 255   0   0
 0.255729 0.0528531  0.156269 255   0   0
0.175167 0.068498 0.198839 255   0   0
 0.175471 0.0719519  0.200894 255   0   0
 0.175822 0.0753266  0.202905 255   0   0
 0.176105 0.0784151  0.204931 255   0   0
0.176143 0.081683 0.206945 255   0   0
 0.176158 0.0848817  0.208887 255   0   0
 0.175993 0.0880886  0.210818 255   0   0
 0.175799 0.0909907  0.212838 255   0   0
 0.175496 0.0939589  0.214904 255   0   0
 0.175078 0.0966734  0.217124 255   0   0
 0.257337 0.0517121  0.157307 255   0   0
 0.174442 0.0988437  0.219551 255   0   0
0.174031 0.100683 0.221904 255   0   0
0.173438  0.10205 0.224192 255   0   0
0.172913 0.103185 0.226397 255   0   0
0.172095 0.103776 0.228708 255   0   0
0.171318 0.103907  0.23092 255   0   0
0.170593 0.103523 0.233188 255   0   0
0.169543 0.102582 0.235623 255   0   0
0.168677 0.100894 0.238035 255   0   0
 0.168047 0.0985722  0.240304 255   0   0
 0.260417 0.0509869  0.156225 255   0   0
 0.167216 0.0953152  0.242494 255   0   0
 0.166057 0.0920514  0.244494 255   0   0
 0.165251 0.0877305  0.246369 255   0   0
 0.164234 0.0827601  0.248029 255   0   0
 0.163065 0.0766365  0.249495 255   0   0
  0.16209 0.0700586    0.2506 255   0   0
 0.160941 0.0630239  0.251605 255   0   0
 0.160124 0.0556392  0.252184 255   0   0
 0.159176 0.0480898  0.252556 255   0   0
 0.158674 0.0403946  0.252652 255   0   0
 0.262647 0.0523367  0.155452 255   0   0
 0.155399 0.0191282  0.254825 255   0   0
 0.156201 0.0124643  0.253485 255   0   0
0.155682 0.006563 0.253851 255   0   0
    0.15509 0.000964839    0.254056 255   0   0
    0.15504 -0.00384862    0.254292 255   0   0
   0.154419 -0.00782351    0.254516 255   0   0
  0.154132 -0.0110196   0.254533 255   0   0
  0.153616 -0.0131969   0.254516 255   0   0
 0.264379 0.0526029   0.15684 255   0   0
 0.139128 0.0634549  0.178882 255   0   0
 0.133201 0.0597124  0.177467 255   0   0
  0.153043 -0.0145604   0.254086 255   0   0
  0.153139 -0.0144508   0.253425 255   0   0
  0.156732 -0.0158697   0.251077 255   0   0
  0.152371 -0.0119063   0.251364 255   0   0
   0.152246 -0.00907393    0.250125 255   0   0
   0.152029 -0.00514577    0.248851 255   0   0
    0.151829 -0.000387603     0.247508 255   0   0
  0.152161 0.00553902   0.246108 255   0   0
 0.152468 0.0119412  0.244628 255   0   0
0.152277 0.018544 0.243371 255   0   0
 0.266545 0.0528993  0.155513 255   0   0
  0.15596 0.0266427  0.239273 255   0   0
 0.156216 0.0444317  0.238859 255   0   0
 0.157462 0.0981621  0.229152 255   0   0
 0.267351 0.0520856  0.157237 255   0   0
0.156844 0.101997 0.233372 255   0   0
0.155894 0.121788 0.234432 255   0   0
0.153467 0.124375 0.235778 255   0   0
0.152902 0.130325 0.236056 255   0   0
0.152347 0.135611 0.236228 255   0   0
0.151826 0.140427 0.236086 255   0   0
0.151193 0.143765 0.236051 255   0   0
0.150676 0.145974 0.235791 255   0   0
0.150252 0.146548 0.235577 255   0   0
  0.26941 0.0522356  0.155896 255   0   0
0.149618 0.146508 0.235233 255   0   0
 0.14915 0.145464 0.234877 255   0   0
0.148708 0.143483 0.234549 255   0   0
0.148313 0.139938 0.234568 255   0   0
0.147765 0.135218 0.234741 255   0   0
0.147183 0.129426 0.235088 255   0   0
0.147106 0.123379 0.235218 255   0   0
0.146463 0.117196 0.235773 255   0   0
0.149302  0.10035 0.233275 255   0   0
 0.270182 0.0514242  0.156213 255   0   0
 0.271453 0.0508724  0.154603 255   0   0
     0.14914 -0.000597973     0.240219 255   0   0
   0.149241 -0.00814361    0.240335 255   0   0
   0.14977 -0.0134545   0.241853 255   0   0
  0.150469 -0.0179105   0.242965 255   0   0
   0.15086 -0.0216452   0.243725 255   0   0
  0.150808 -0.0248204   0.244377 255   0   0
  0.153516 -0.0271925   0.244106 255   0   0
  0.151701 -0.0272776   0.245089 255   0   0
  0.152103 -0.0268312   0.245211 255   0   0
 0.271427 0.0509915  0.156502 255   0   0
  0.151569 -0.0259249   0.244977 255   0   0
  0.152597 -0.0223334   0.245165 255   0   0
  0.15273 -0.018802  0.244708 255   0   0
  0.152634 -0.0144808   0.244102 255   0   0
   0.152398 -0.00940947    0.243423 255   0   0
   0.152217 -0.00344059    0.242839 255   0   0
  0.152149 0.00313612   0.242281 255   0   0
 0.148849 0.0100043  0.241998 255   0   0
 0.151468 0.0190438  0.241351 255   0   0
 0.144963 0.0221878  0.236441 255   0   0
0.273059 0.051436 0.155298 255   0   0
 0.152778 0.0423943  0.238474 255   0   0
 0.152172 0.0490721  0.237726 255   0   0
 0.151321 0.0559419  0.237447 255   0   0
 0.151776 0.0635971  0.236819 255   0   0
  0.15127 0.0702942  0.236229 255   0   0
 0.151186 0.0777502  0.235715 255   0   0
 0.153111 0.0846169  0.233497 255   0   0
 0.273672 0.0524394   0.15428 255   0   0
0.150437 0.120644  0.23347 255   0   0
0.147725 0.125717  0.23356 255   0   0
0.146991 0.131526 0.233339 255   0   0
0.146521 0.136283 0.233008 255   0   0
 0.14598 0.140332 0.232561 255   0   0
0.145475  0.14341 0.232052 255   0   0
0.144107 0.145387 0.231722 255   0   0
0.144245 0.146228 0.231269 255   0   0
 0.273729 0.0519235  0.155591 255   0   0
0.143777  0.14584 0.230959 255   0   0
 0.14321 0.144432 0.230856 255   0   0
 0.14286 0.141952 0.230913 255   0   0
0.142416   0.1385 0.231205 255   0   0
0.140988  0.13388  0.23237 255   0   0
0.141067 0.127866 0.232654 255   0   0
0.139853 0.119687 0.234993 255   0   0
0.139973 0.113513 0.235372 255   0   0
 0.273272 0.0523287  0.154898 255   0   0
 0.138493 0.0635534  0.178956 255   0   0
 0.140322 0.0272862  0.240407 255   0   0
 0.145461 0.0189634  0.235665 255   0   0
 0.142537 0.0122926  0.240528 255   0   0
  0.147481 0.00557619   0.244141 255   0   0
   0.142482 -0.00113501    0.244216 255   0   0
0.272314 0.050235 0.154942 255   0   0
   0.142887 -0.00689657    0.245056 255   0   0
  0.143417 -0.0115971   0.245819 255   0   0
  0.143628 -0.0152628   0.246608 255   0   0
  0.144392 -0.0180758   0.246981 255   0   0
  0.144804 -0.0202677   0.247252 255   0   0
  0.145042 -0.0212562   0.247543 255   0   0
  0.145331 -0.0215691   0.247648 255   0   0
  0.145792 -0.0207117   0.247882 255   0   0
 0.146059 -0.019267  0.247912 255   0   0
 0.146528 -0.016749  0.248024 255   0   0
 0.271641 0.0503541  0.154523 255   0   0
  0.146928 -0.0136688   0.248005 255   0   0
   0.147632 -0.00962566    0.248184 255   0   0
   0.148042 -0.00504118    0.248584 255   0   0
    0.148373 -0.000433256      0.24903 255   0   0
  0.149156 0.00487877   0.249593 255   0   0
 0.149818 0.0106897  0.250151 255   0   0
 0.150456 0.0170778  0.250665 255   0   0
 0.151177 0.0234717  0.250984 255   0   0
 0.151604 0.0297379   0.25106 255   0   0
 0.152147 0.0367438  0.251321 255   0   0
 0.270335 0.0513805  0.155324 255   0   0
 0.152829 0.0436923  0.251422 255   0   0
0.153947 0.051323 0.251358 255   0   0
  0.15749 0.0592279  0.249154 255   0   0
 0.156013 0.0673475  0.249991 255   0   0
 0.158268 0.0808778  0.249332 255   0   0
 0.156241 0.0887827   0.25149 255   0   0
 0.156805 0.0950626  0.251943 255   0   0
 0.268646 0.0513283  0.154225 255   0   0
0.154011 0.125134 0.252884 255   0   0
0.153166 0.132021 0.252798 255   0   0
0.152333 0.137916 0.252602 255   0   0
0.151047 0.143469 0.252214 255   0   0
0.150257 0.148389  0.25141 255   0   0
0.149132 0.152295 0.250517 255   0   0
0.147597 0.155223 0.249527 255   0   0
 0.14638 0.157132 0.248236 255   0   0
0.145037 0.157404 0.247098 255   0   0
 0.266494 0.0526731  0.154496 255   0   0
0.143898 0.156082   0.2462 255   0   0
 0.14254 0.152926 0.245799 255   0   0
0.144821 0.142717 0.246247 255   0   0
 0.264186 0.0519221  0.155206 255   0   0
 0.148368 0.0311838  0.252108 255   0   0
0.138393 0.031203  0.25183 255   0   0
  0.13837 0.0234956  0.251647 255   0   0
 0.138558 0.0167071  0.251901 255   0   0
  0.138041 0.00914034   0.251722 255   0   0
  0.138634 0.00311077   0.252285 255   0   0
 0.261338 0.0517302  0.154887 255   0   0
   0.138458 -0.00349812    0.252614 255   0   0
   0.138876 -0.00858097    0.253358 255   0   0
  0.138803 -0.0134034   0.253735 255   0   0
  0.138995 -0.0172231   0.254032 255   0   0
   0.13923 -0.0205479   0.254181 255   0   0
  0.139003 -0.0230217   0.254392 255   0   0
  0.139248 -0.0245503   0.254385 255   0   0
  0.139489 -0.0241754   0.254386 255   0   0
  0.139796 -0.0233252   0.254131 255   0   0
  0.139751 -0.0216305   0.253701 255   0   0
 0.258551 0.0511108  0.154968 255   0   0
  0.140264 -0.0194676   0.252978 255   0   0
  0.140783 -0.0159362   0.252437 255   0   0
 0.141365 -0.011064  0.252153 255   0   0
   0.141915 -0.00558361    0.251775 255   0   0
   0.142634 0.000683651    0.251316 255   0   0
  0.143041 0.00757611   0.250799 255   0   0
   0.1436 0.0143794  0.250088 255   0   0
 0.144773 0.0220752  0.249416 255   0   0
 0.144564 0.0285339  0.248888 255   0   0
 0.145406 0.0362273  0.248192 255   0   0
  0.25672 0.0526968  0.154885 255   0   0
  0.14612 0.0442649  0.247757 255   0   0
 0.147531 0.0522511  0.247248 255   0   0
 0.148078 0.0594888  0.246645 255   0   0
 0.148799 0.0668189  0.246457 255   0   0
 0.148882 0.0737063  0.246164 255   0   0
 0.150061 0.0815502  0.245826 255   0   0
 0.252753 0.0513676  0.154676 255   0   0
 0.138002 0.0635401  0.179007 255   0   0
0.148807 0.125895   0.2454 255   0   0
0.148241 0.132435 0.245551 255   0   0
0.147831 0.138529 0.245414 255   0   0
0.147313 0.143878 0.245152 255   0   0
0.146854 0.148829 0.244662 255   0   0
0.146167 0.152961 0.244118 255   0   0
0.145382  0.15551 0.243596 255   0   0
0.144787 0.157053 0.243054 255   0   0
0.144102  0.15759 0.242498 255   0   0
 0.249229 0.0516556  0.154933 255   0   0
0.143262 0.156681 0.242186 255   0   0
0.142429 0.154519 0.241997 255   0   0
0.141383 0.151261 0.242041 255   0   0
 0.14139 0.146287 0.241828 255   0   0
0.141377 0.140407 0.241693 255   0   0
0.139809  0.13661 0.240453 255   0   0
0.141411 0.128621 0.241419 255   0   0
0.141362 0.121538 0.241787 255   0   0
 0.14053 0.112611 0.242725 255   0   0
0.154862 0.111917 0.242372 255   0   0
 0.246106 0.0512243  0.154409 255   0   0
 0.141389 0.0744843  0.243089 255   0   0
 0.242435 0.0507198  0.154594 255   0   0
   0.141364 -0.00272596    0.238918 255   0   0
   0.143652 -0.00856746     0.23724 255   0   0
  0.144638 -0.0134198   0.237256 255   0   0
 0.144611 -0.017558  0.237363 255   0   0
 0.144377 -0.021024  0.237661 255   0   0
  0.144698 -0.0237195   0.237561 255   0   0
  0.145018 -0.0258483   0.237421 255   0   0
  0.145277 -0.0266247   0.237576 255   0   0
  0.145523 -0.0266511   0.237782 255   0   0
0.238991 0.050674 0.154954 255   0   0
  0.146085 -0.0258692   0.237956 255   0   0
  0.146569 -0.0236517   0.238379 255   0   0
   0.14693 -0.0213995    0.23852 255   0   0
  0.147419 -0.0181758    0.23885 255   0   0
  0.147655 -0.0146875   0.239048 255   0   0
  0.147728 -0.0109216   0.239282 255   0   0
   0.148168 -0.00606641     0.23966 255   0   0
    0.148467 -0.000561381     0.240042 255   0   0
  0.149168 0.00576189   0.240247 255   0   0
0.149567 0.012482 0.240317 255   0   0
 0.235885 0.0527133  0.155558 255   0   0
 0.149859 0.0192596  0.240289 255   0   0
 0.150306 0.0263018  0.240225 255   0   0
 0.151063 0.0338239  0.240186 255   0   0
 0.154098 0.0812452  0.239315 255   0   0
 0.153576 0.0879135  0.239749 255   0   0
 0.232449 0.0500744  0.154549 255   0   0
 0.148883 0.0949947   0.24331 255   0   0
0.154597 0.116886 0.240431 255   0   0
0.151283  0.12508 0.242993 255   0   0
0.150362 0.132109 0.243571 255   0   0
0.149395 0.138504 0.244029 255   0   0
0.148808 0.144504  0.24425 255   0   0
0.147924 0.149475 0.244376 255   0   0
0.147066 0.153585 0.244279 255   0   0
   0.2271 0.0498929   0.15547 255   0   0
0.146384 0.156912 0.243796 255   0   0
 0.14539 0.158838  0.24351 255   0   0
0.144428 0.160087 0.242822 255   0   0
0.143297 0.159885 0.242371 255   0   0
0.142479 0.158534 0.241958 255   0   0
0.141655 0.156085 0.241586 255   0   0
0.140867 0.152625 0.241407 255   0   0
0.140058 0.148144 0.241395 255   0   0
0.139603 0.142384 0.241697 255   0   0
0.139575 0.137232 0.241898 255   0   0
 0.222074 0.0503004  0.156576 255   0   0
 0.218794 0.0506949  0.156721 255   0   0
 0.141413 0.0103731  0.242622 255   0   0
      0.138 1.51452e-05    0.242086 255   0   0
   0.138477 -0.00674542    0.241988 255   0   0
   0.13868 -0.0132249   0.241602 255   0   0
  0.139062 -0.0189296   0.241643 255   0   0
  0.139344 -0.0241066   0.241849 255   0   0
   0.13884 -0.0295342   0.241635 255   0   0
  0.144261 -0.0376434   0.239157 255   0   0
 0.214358 0.0486973  0.156355 255   0   0
  0.13741 0.0635158  0.179102 255   0   0
  0.139811 -0.0361518   0.241722 255   0   0
  0.139745 -0.0377996   0.241741 255   0   0
 0.139636 -0.038539  0.241762 255   0   0
   0.13977 -0.0383372   0.241689 255   0   0
  0.139924 -0.0372138   0.241851 255   0   0
  0.13986 -0.035058  0.242091 255   0   0
  0.140113 -0.0321945   0.242138 255   0   0
 0.140123 -0.028121  0.242413 255   0   0
  0.140074 -0.0233169     0.2427 255   0   0
  0.140146 -0.0179063   0.242702 255   0   0
 0.209877 0.0483703  0.156816 255   0   0
 0.140223 -0.012078  0.242708 255   0   0
    0.14048 -0.00537831    0.243007 255   0   0
  0.140415 0.00156464   0.243179 255   0   0
 0.140507 0.0085177  0.243865 255   0   0
 0.143486 0.0162088  0.241532 255   0   0
 0.141593 0.0331583  0.244209 255   0   0
 0.142852 0.0415875  0.243514 255   0   0
 0.142255 0.0476323  0.244093 255   0   0
 0.141868 0.0545893  0.244414 255   0   0
 0.206119 0.0474516  0.156924 255   0   0
 0.142331 0.0619192  0.244291 255   0   0
 0.143153 0.0680347   0.24417 255   0   0
 0.143616 0.0834405  0.244403 255   0   0
 0.142977 0.0908874  0.244801 255   0   0
0.142895   0.0979 0.245429 255   0   0
0.142491 0.104617 0.246085 255   0   0
0.142013 0.111144  0.24681 255   0   0
0.141629  0.11809 0.247304 255   0   0
0.141163 0.124869 0.247783 255   0   0
 0.201557 0.0478154  0.157825 255   0   0
0.140504  0.13184 0.248147 255   0   0
0.140826 0.139479 0.248377 255   0   0
0.139262 0.144526 0.248925 255   0   0
 0.13862 0.150406 0.249134 255   0   0
0.138207  0.15544 0.249097 255   0   0
0.137759 0.159678 0.248913 255   0   0
0.137238 0.162743 0.248799 255   0   0
0.136723 0.165421 0.248317 255   0   0
0.136275  0.16699 0.247927 255   0   0
 0.13599 0.167709 0.247473 255   0   0
0.197366 0.047535 0.158399 255   0   0
0.135735 0.167016  0.24711 255   0   0
0.135581   0.1652 0.246765 255   0   0
0.135145 0.162267 0.246747 255   0   0
0.135207 0.158887 0.246513 255   0   0
0.134792 0.154261 0.246555 255   0   0
0.134204 0.149231 0.246917 255   0   0
 0.13687 0.139933 0.246806 255   0   0
0.134211 0.138507 0.243719 255   0   0
0.134874  0.12331 0.249384 255   0   0
 0.193052 0.0473528   0.15891 255   0   0
  0.13645 0.0429168  0.248981 255   0   0
 0.136046 0.0354602   0.24991 255   0   0
 0.136167 0.0253558  0.249139 255   0   0
 0.133251 0.0157759  0.247393 255   0   0
 0.136392 0.0079998    0.2475 255   0   0
 0.188696 0.0473242  0.159415 255   0   0
   0.136496 0.000427324    0.246577 255   0   0
   0.136592 -0.00636761    0.246076 255   0   0
  0.136812 -0.0130402   0.245833 255   0   0
 0.137201 -0.019344  0.246004 255   0   0
  0.137676 -0.0252498    0.24616 255   0   0
   0.13749 -0.0304139   0.246657 255   0   0
  0.139508 -0.0354328   0.246267 255   0   0
  0.138281 -0.0404768   0.245385 255   0   0
   0.13451 -0.0376967   0.249828 255   0   0
  0.142225 -0.0423261   0.247407 255   0   0
 0.184464 0.0473037  0.159957 255   0   0
  0.141265 -0.0423697   0.246859 255   0   0
  0.139754 -0.0435125   0.247639 255   0   0
  0.138225 -0.0444606    0.24816 255   0   0
  0.140004 -0.0429137   0.247731 255   0   0
  0.137779 -0.0398301   0.249092 255   0   0
  0.139693 -0.0390176   0.248082 255   0   0
  0.139354 -0.0346389   0.248535 255   0   0
0.139851 -0.02767  0.24974 255   0   0
  0.139025 -0.0245239   0.247987 255   0   0
  0.139292 -0.0175391    0.24917 255   0   0
 0.180197 0.0473674  0.160606 255   0   0
  0.138873 -0.0104482   0.249513 255   0   0
   0.139863 -0.00290365    0.249312 255   0   0
 0.139138 0.0327186  0.248683 255   0   0
 0.175739 0.0474894  0.161258 255   0   0
0.143653 0.136725 0.243055 255   0   0
0.139456 0.143522 0.246679 255   0   0
0.138335 0.151016 0.246968 255   0   0
 0.171107 0.0474686  0.161873 255   0   0
 0.137063 0.0634009  0.179153 255   0   0
0.137326 0.157465 0.247071 255   0   0
0.137065 0.162541 0.246939 255   0   0
0.135854 0.167206 0.246387 255   0   0
0.135624 0.169376 0.246363 255   0   0
0.135341 0.170215 0.246338 255   0   0
0.135111 0.169248 0.246464 255   0   0
0.134614 0.167664 0.246597 255   0   0
0.134076 0.164977 0.246919 255   0   0
 0.13396 0.161038 0.247441 255   0   0
0.133693 0.156434 0.247969 255   0   0
  0.16666 0.0475738  0.162411 255   0   0
 0.13347 0.151294 0.248431 255   0   0
0.133412 0.145944 0.248863 255   0   0
0.132755 0.139599 0.249335 255   0   0
0.132707 0.133001 0.249533 255   0   0
0.132232 0.126378 0.250057 255   0   0
0.130703 0.119529 0.250708 255   0   0
  0.16228 0.0478732  0.163027 255   0   0
0.133762 0.062472 0.250963 255   0   0
0.121758 0.037884 0.254602 255   0   0
   0.13624 0.00765301   0.252068 255   0   0
   0.135685 0.000988254    0.252338 255   0   0
   0.136328 -0.00632289    0.252166 255   0   0
  0.136651 -0.0130447   0.252329 255   0   0
 0.157967 0.0483401  0.163769 255   0   0
0.136915 -0.01997 0.252237 255   0   0
  0.137569 -0.0262691   0.252272 255   0   0
  0.137556 -0.0322654   0.253217 255   0   0
 0.135429 -0.035351  0.255322 255   0   0
  0.139403 -0.0423826    0.25252 255   0   0
  0.137525 -0.0481774   0.252442 255   0   0
 0.139217 -0.047568  0.254824 255   0   0
  0.140657 -0.0528551   0.252721 255   0   0
  0.133002 -0.0523769   0.255311 255   0   0
  0.139551 -0.0509806   0.254875 255   0   0
 0.153646 0.0485521  0.164631 255   0   0
  0.140321 -0.0516203   0.253433 255   0   0
  0.126366 -0.0482366   0.257012 255   0   0
  0.138187 -0.0435439   0.254781 255   0   0
  0.141693 -0.0424103   0.252093 255   0   0
  0.139622 -0.0370626   0.254542 255   0   0
  0.139586 -0.0318956   0.254089 255   0   0
  0.141703 -0.0255243   0.254266 255   0   0
  0.144527 -0.0226189    0.25308 255   0   0
  0.139799 -0.0136758   0.254583 255   0   0
   0.140029 -0.00675393    0.254512 255   0   0
  0.14922 0.0486636  0.165573 255   0   0
    0.138258 -4.45746e-05     0.255193 255   0   0
 0.145466 0.0340639  0.249659 255   0   0
 0.141535 0.0420431  0.252544 255   0   0
  0.13472 0.0415502  0.250845 255   0   0
 0.147523 0.0585031  0.247356 255   0   0
 0.144844 0.0487742  0.166407 255   0   0
 0.142663 0.0871772  0.247296 255   0   0
