ply
format ascii 1.0
element vertex 1135
property float x
property float y
property float z
property uchar red
property uchar green
property uchar blue
end_header
0.0674076 0.0169008  0.190074   0 255   0
0.0711185 0.0149414  0.189101   0 255   0
0.0748829 0.0131739  0.188091   0 255   0
0.0786815 0.0115993  0.187059   0 255   0
0.0824791 0.0102146  0.186017   0 255   0
 0.0862528 0.00901387   0.184973   0 255   0
 0.0900077 0.00799066   0.183933   0 255   0
 0.0937614 0.00713934   0.182902   0 255   0
 0.0975194 0.00645699   0.181882   0 255   0
 0.104966 0.0056001  0.179865   0 255   0
  0.108626 0.00542605   0.178863   0 255   0
  0.115955 0.00557851   0.176856   0 255   0
  0.119691 0.00590224   0.175849   0 255   0
  0.123462 0.00638917   0.174846   0 255   0
  0.127227 0.00703448   0.173858   0 255   0
  0.130959 0.00782772   0.172896   0 255   0
  0.134657 0.00875311   0.171967   0 255   0
  0.138339 0.00979342   0.171073   0 255   0
 0.142012 0.0109342  0.170216   0 255   0
 0.145657 0.0121657  0.169401   0 255   0
 0.149245 0.0134814   0.16863   0 255   0
 0.152747 0.0148763  0.167902   0 255   0
 0.156153 0.0163468  0.167209   0 255   0
0.159462 0.017897 0.166541   0 255   0
 0.162672 0.0195452  0.165888   0 255   0
 0.165775 0.0213238  0.165248   0 255   0
 0.168756 0.0232638  0.164619   0 255   0
 0.171607 0.0253738  0.163992   0 255   0
 0.174327 0.0276313  0.163354   0 255   0
 0.176919 0.0300031  0.162698   0 255   0
 0.179377 0.0324776  0.162032   0 255   0
 0.181684 0.0350812  0.161383   0 255   0
  0.18382 0.0378539  0.160779   0 255   0
 0.185775 0.0408101  0.160237   0 255   0
 0.187553 0.0439177   0.15975   0 255   0
 0.189169 0.0471237  0.159302   0 255   0
0.190631 0.050396 0.158882   0 255   0
 0.191936 0.0537478  0.158497   0 255   0
 0.193083 0.0572171  0.158162   0 255   0
 0.194087 0.0608294  0.157888   0 255   0
 0.194981 0.0645756  0.157677   0 255   0
 0.195804 0.0684236  0.157531   0 255   0
0.196569 0.072342 0.157448   0 255   0
  0.19784 0.0803307  0.157502   0 255   0
 0.198307 0.0843709  0.157638   0 255   0
 0.199012 0.0923598  0.158063   0 255   0
 0.199318 0.0962327  0.158321   0 255   0
0.199588 0.100008 0.158604   0 255   0
0.199795 0.103686 0.158919   0 255   0
0.199923 0.107249  0.15927   0 255   0
0.199993 0.110647 0.159656   0 255   0
0.200041 0.113826  0.16008   0 255   0
 0.20009 0.116765 0.160552   0 255   0
0.200128 0.119496 0.161092   0 255   0
0.200119 0.122076 0.161717   0 255   0
0.200023 0.124546 0.162436   0 255   0
0.199813 0.126897 0.163249   0 255   0
0.199479 0.129111 0.164147   0 255   0
 0.19903 0.131195 0.165124   0 255   0
0.198488 0.133218 0.166168   0 255   0
0.197873 0.135271 0.167262   0 255   0
0.197183 0.137426 0.168382   0 255   0
0.196382 0.139706 0.169509   0 255   0
0.195422 0.142104 0.170631   0 255   0
0.194273 0.144622 0.171744   0 255   0
0.192943 0.147288 0.172848   0 255   0
0.191462  0.15014 0.173941   0 255   0
0.189855 0.153197 0.175019   0 255   0
0.188118 0.156439 0.176081   0 255   0
0.186228 0.159812 0.177123   0 255   0
0.184166 0.163237 0.178144   0 255   0
0.181924 0.166628  0.17914   0 255   0
0.179513 0.169911 0.180103   0 255   0
0.176968 0.173049 0.181023   0 255   0
0.174339 0.176049 0.181885   0 255   0
0.171677 0.178941 0.182674   0 255   0
0.169002  0.18173 0.183388   0 255   0
0.163512 0.186815  0.18466   0 255   0
0.160637 0.188984 0.185269   0 255   0
0.154699 0.192388 0.186518   0 255   0
  0.1517  0.19359 0.187169   0 255   0
0.148681 0.194433 0.187841   0 255   0
0.145615 0.194896 0.188534   0 255   0
0.142492 0.194965 0.189244   0 255   0
0.139339 0.194634 0.189963   0 255   0
0.136201 0.193902  0.19068   0 255   0
0.133108 0.192776 0.191385   0 255   0
0.130055 0.191272 0.192067   0 255   0
0.127018 0.189412 0.192719   0 255   0
0.123976 0.187222 0.193334   0 255   0
0.120927 0.184727 0.193911   0 255   0
0.117885  0.18194 0.194454   0 255   0
0.114876  0.17886 0.194975   0 255   0
0.111927 0.175476 0.195489   0 255   0
0.109058 0.171777 0.196013   0 255   0
0.106273 0.167767 0.196555   0 255   0
0.103556 0.163472 0.197111   0 255   0
0.100885 0.158933  0.19767   0 255   0
0.0982461  0.154201  0.198214   0 255   0
0.0956374  0.149322   0.19872   0 255   0
0.0930724  0.144331  0.199164   0 255   0
0.0905701  0.139243  0.199524   0 255   0
0.0881481  0.134063  0.199784   0 255   0
0.0858231  0.128788  0.199931   0 255   0
0.0836141  0.123418  0.199961   0 255   0
0.0815447  0.117967  0.199877   0 255   0
0.0796393  0.112458   0.19969   0 255   0
0.0779179  0.106907  0.199418   0 255   0
0.0763914  0.101325  0.199083   0 255   0
0.0750589 0.0957118  0.198703   0 255   0
0.0739067  0.090072  0.198291   0 255   0
 0.072045 0.0787622  0.197374   0 255   0
0.0712962  0.073129  0.196854   0 255   0
0.0701825 0.0620011  0.195654   0 255   0
0.0698595 0.0565458  0.194959   0 255   0
0.0697197 0.0511886  0.194189   0 255   0
0.0697807  0.045954  0.193337   0 255   0
0.0700616 0.0408838  0.192394   0 255   0
0.0705829 0.0360378  0.191358   0 255   0
0.0713558 0.0314689  0.190235   0 255   0
0.0723744 0.0271933  0.189041   0 255   0
0.0736152 0.0231788  0.187802   0 255   0
0.0750502 0.0193676  0.186545   0 255   0
0.0766628 0.0157111  0.185294   0 255   0
0.0784534 0.0121959  0.184067   0 255   0
 0.0804271 0.00883857    0.18287   0 255   0
 0.0825747 0.00566432   0.181704   0 255   0
 0.0848625 0.00268897   0.180562   0 255   0
  0.0872424 -7.6818e-05    0.179436   0 255   0
  0.0896676 -0.00261437     0.17832   0 255   0
  0.0921058 -0.00489182     0.17722   0 255   0
  0.0945453 -0.00688142    0.176149   0 255   0
  0.0969995 -0.00858472     0.17513   0 255   0
 0.0995061 -0.0100427   0.174186   0 255   0
  0.102107 -0.0113081   0.173335   0 255   0
  0.104817 -0.0124049   0.172585   0 255   0
  0.107603 -0.0133073   0.171935   0 255   0
  0.110408 -0.0139597   0.171381   0 255   0
 0.11319 -0.01431  0.17092   0 255   0
  0.115948 -0.0143319   0.170556   0 255   0
  0.118709 -0.0140226   0.170291   0 255   0
  0.121493 -0.0133918   0.170133   0 255   0
  0.124293 -0.0124512    0.17009   0 255   0
  0.127084 -0.0112128   0.170171   0 255   0
   0.129853 -0.00968791    0.170386   0 255   0
   0.135378 -0.00581121    0.171248   0 255   0
   0.138155 -0.00347607    0.171893   0 255   0
  0.143606 0.00189352   0.173552   0 255   0
  0.146189 0.00485976   0.174529   0 255   0
   0.14864 0.00795684   0.175579   0 255   0
  0.15096 0.0111443  0.176686   0 255   0
0.153166 0.014395 0.177835   0 255   0
 0.155277 0.0177006  0.179019   0 255   0
 0.157313 0.0210629   0.18023   0 255   0
0.159277 0.024481 0.181462   0 255   0
 0.161162 0.0279437  0.182707   0 255   0
 0.162954 0.0314361   0.18396   0 255   0
 0.164652 0.0349506   0.18522   0 255   0
 0.166265 0.0384939  0.186495   0 255   0
 0.167804 0.0420817  0.187798   0 255   0
 0.169264 0.0457302  0.189148   0 255   0
 0.170617 0.0494474  0.190566   0 255   0
0.171827 0.053224 0.192071   0 255   0
 0.172866 0.0570221   0.19368   0 255   0
 0.173727 0.0607748    0.1954   0 255   0
 0.174416 0.0644143  0.197234   0 255   0
 0.174942 0.0679065   0.19917   0 255   0
 0.175301 0.0712667  0.201188   0 255   0
 0.175488 0.0745447  0.203261   0 255   0
 0.175509 0.0777972  0.205363   0 255   0
 0.175394 0.0810609  0.207473   0 255   0
 0.175178 0.0843333  0.209581   0 255   0
 0.174893 0.0875675  0.211688   0 255   0
 0.174558 0.0906801  0.213802   0 255   0
 0.174184 0.0935704  0.215934   0 255   0
 0.173777 0.0961442  0.218095   0 255   0
 0.173345 0.0983332  0.220288   0 255   0
0.172897 0.100098 0.222509   0 255   0
0.172433  0.10142 0.224748   0 255   0
0.171407 0.102702 0.229229   0 255   0
0.170836 0.102624 0.231449   0 255   0
 0.16971 0.100814 0.235823   0 255   0
 0.169202 0.0989928  0.237965   0 255   0
 0.168153 0.0934875  0.242074   0 255   0
 0.167518 0.0898444   0.24398   0 255   0
 0.166002 0.0808304  0.247294   0 255   0
  0.16518 0.0754907   0.24863   0 255   0
 0.163562 0.0634387  0.250576   0 255   0
 0.162798 0.0568907  0.251225   0 255   0
 0.162067 0.0500869  0.251722   0 255   0
 0.161361 0.0430891  0.252131   0 255   0
 0.159301 0.0219357  0.253343   0 255   0
 0.158609 0.0152877  0.253807   0 255   0
  0.157909 0.00906334   0.254276   0 255   0
  0.157203 0.00336989   0.254712   0 255   0
   0.156501 -0.00169498    0.255065   0 255   0
   0.155821 -0.00603761    0.255277   0 255   0
   0.155176 -0.00957075     0.25529   0 255   0
  0.154567 -0.0122181    0.25505   0 255   0
  0.153976 -0.0139183   0.254521   0 255   0
  0.153379 -0.0146274   0.253688   0 255   0
  0.152765 -0.0143214   0.252569   0 255   0
  0.152151 -0.0129962   0.251215   0 255   0
   0.15157 -0.0106629   0.249704   0 255   0
   0.151061 -0.00733961    0.248122   0 255   0
   0.150649 -0.00304895    0.246554   0 255   0
  0.150342 0.00217154   0.245068   0 255   0
  0.150123 0.00825447   0.243713   0 255   0
 0.149797 0.0225705  0.241455   0 255   0
 0.149836 0.0986632  0.236684   0 255   0
0.149932 0.106494 0.236523   0 255   0
0.150123 0.120892 0.236333   0 255   0
0.150255 0.127323 0.236277   0 255   0
0.150405 0.133051 0.236231   0 255   0
0.150547 0.137877 0.236182   0 255   0
0.150654 0.141629 0.236117   0 255   0
0.150714 0.144208 0.236024   0 255   0
0.150728 0.145583 0.235897   0 255   0
0.150704 0.145759 0.235739   0 255   0
0.150648 0.144754 0.235566   0 255   0
0.150572 0.142604   0.2354   0 255   0
0.150485 0.139391 0.235264   0 255   0
0.150402  0.13525 0.235177   0 255   0
0.150339 0.130345 0.235149   0 255   0
0.150314 0.124838 0.235178   0 255   0
0.150344 0.118856 0.235251   0 255   0
 0.15044 0.112496 0.235354   0 255   0
0.150597 0.105819 0.235468   0 255   0
   0.154404 -0.00193979    0.242072   0 255   0
   0.154746 -0.00816553    0.242991   0 255   0
  0.155399 -0.0180727   0.244274   0 255   0
 0.155748 -0.021556  0.244565   0 255   0
   0.15645 -0.0254032   0.244544   0 255   0
  0.156749 -0.0257787   0.244345   0 255   0
  0.156992 -0.0251333   0.244098   0 255   0
  0.157173 -0.0234742    0.24384   0 255   0
  0.157274 -0.0208239   0.243585   0 255   0
  0.157259 -0.0172342   0.243319   0 255   0
  0.15709 -0.012776  0.243017   0 255   0
   0.156767 -0.00751613    0.242647   0 255   0
  0.156341 -0.0015062   0.242181   0 255   0
   0.15589 0.00519161   0.241608   0 255   0
 0.155464 0.0124703  0.240939   0 255   0
 0.155048 0.0201675  0.240208   0 255   0
 0.154049 0.0361173  0.238738   0 255   0
 0.153417 0.0441373  0.238066   0 255   0
 0.152727 0.0521468  0.237455   0 255   0
 0.152022 0.0601643  0.236903   0 255   0
 0.151332 0.0682065  0.236402   0 255   0
 0.150673 0.0762778  0.235939   0 255   0
 0.150062 0.0843706  0.235498   0 255   0
0.148142 0.122738 0.233262   0 255   0
0.147882 0.128914 0.232827   0 255   0
0.147426 0.138562 0.232062   0 255   0
0.147263 0.141887 0.231759   0 255   0
0.146987 0.145203 0.231392   0 255   0
 0.14681 0.145103 0.231354   0 255   0
0.146385 0.141438 0.231613   0 255   0
0.146183 0.137982 0.231916   0 255   0
0.145839 0.128134 0.232859   0 255   0
0.145682 0.121885 0.233484   0 255   0
0.145532 0.114881 0.234197   0 255   0
0.145393 0.107233 0.234981   0 255   0
   0.1451 0.0354959   0.24236   0 255   0
 0.145191 0.0271029   0.24327   0 255   0
 0.145342 0.0190518  0.244187   0 255   0
 0.145535 0.0114387    0.2451   0 255   0
  0.145733 0.00441593    0.24598   0 255   0
    0.14591 -0.00186401    0.246786   0 255   0
   0.146058 -0.00729378    0.247472   0 255   0
   0.14619 -0.0118157   0.247998   0 255   0
  0.146321 -0.0154056   0.248336   0 255   0
  0.146457 -0.0180578   0.248475   0 255   0
  0.146596 -0.0197745   0.248427   0 255   0
   0.14674 -0.0205566   0.248229   0 255   0
  0.147074 -0.0193046   0.247638   0 255   0
  0.147284 -0.0173276   0.247387   0 255   0
 0.147794 -0.011203  0.247271   0 255   0
  0.148075 -0.0073095   0.247451   0 255   0
  0.148648 0.00190036   0.248201   0 255   0
  0.148927 0.00721877   0.248695   0 255   0
 0.149422 0.0191056  0.249749   0 255   0
  0.14963 0.0255865  0.250262   0 255   0
 0.150051 0.0396915  0.251168   0 255   0
 0.150311 0.0473795  0.251542   0 255   0
 0.150608 0.0554583  0.251864   0 255   0
 0.150927 0.0638328  0.252146   0 255   0
 0.151495 0.0809568  0.252638   0 255   0
 0.151677 0.0894563  0.252862   0 255   0
 0.151763 0.0977938  0.253064   0 255   0
0.151219 0.128622 0.253174   0 255   0
0.150814 0.135253  0.25291   0 255   0
0.150275 0.141157 0.252503   0 255   0
0.149638 0.146202 0.251955   0 255   0
0.148962 0.150275 0.251279   0 255   0
0.148287 0.153248   0.2505   0 255   0
0.147612 0.154961 0.249659   0 255   0
0.146912 0.155259 0.248812   0 255   0
0.146174 0.154051 0.248022   0 255   0
0.145427 0.151345 0.247351   0 255   0
0.144726 0.147235 0.246852   0 255   0
 0.141342 0.0441677  0.251966   0 255   0
 0.141376 0.0292684  0.252803   0 255   0
 0.141378 0.0220947  0.253262   0 255   0
0.141367 0.015128 0.253764   0 255   0
 0.141325 0.0084448  0.254292   0 255   0
  0.141241 0.00214425   0.254808   0 255   0
   0.141114 -0.00367468    0.255261   0 255   0
   0.140958 -0.00891755    0.255599   0 255   0
  0.140795 -0.0134892   0.255779   0 255   0
   0.14065 -0.0172908   0.255773   0 255   0
  0.140547 -0.0202271   0.255575   0 255   0
  0.140501 -0.0222176   0.255203   0 255   0
  0.140518 -0.0232064   0.254691   0 255   0
 0.140595 -0.023162   0.25408   0 255   0
  0.140726 -0.0220728   0.253408   0 255   0
  0.141109 -0.0168135   0.251997   0 255   0
   0.14134 -0.0127435   0.251294   0 255   0
   0.141832 -0.00222881     0.24996   0 255   0
  0.142084 0.00396832   0.249359   0 255   0
 0.142345 0.0106516  0.248822   0 255   0
0.142627 0.017739 0.248365   0 255   0
 0.142937 0.0251507  0.248002   0 255   0
 0.143276 0.0327986  0.247741   0 255   0
 0.143635 0.0405995   0.24758   0 255   0
 0.143988 0.0484971    0.2475   0 255   0
 0.144299 0.0564725  0.247469   0 255   0
 0.144534 0.0645397  0.247446   0 255   0
 0.144691 0.0727358  0.247388   0 255   0
 0.144805 0.0811031   0.24726   0 255   0
0.145967 0.136539 0.245037   0 255   0
0.145929 0.142289 0.244762   0 255   0
0.145819  0.14723 0.244498   0 255   0
0.145643 0.151246 0.244236   0 255   0
0.145403  0.15422 0.243973   0 255   0
0.145091 0.156069 0.243703   0 255   0
0.144704 0.156739  0.24343   0 255   0
 0.14427 0.156187  0.24316   0 255   0
0.143856 0.154385 0.242911   0 255   0
0.143537 0.151337 0.242698   0 255   0
0.143356 0.147119 0.242536   0 255   0
0.143292 0.141897 0.242425   0 255   0
0.143287 0.135895 0.242359   0 255   0
  0.1433 0.129343 0.242328   0 255   0
0.143454 0.115284 0.242335   0 255   0
0.143668 0.107959 0.242349   0 255   0
 0.144724 0.0766412  0.242007   0 255   0
  0.146303 0.00304552   0.239397   0 255   0
   0.146368 -0.00316373     0.23929   0 255   0
   0.146408 -0.00865164    0.239225   0 255   0
  0.146403 -0.0173236   0.239147   0 255   0
  0.146371 -0.0204791   0.239091   0 255   0
  0.146405 -0.0243179    0.23886   0 255   0
  0.146532 -0.0249536   0.238682   0 255   0
  0.146731 -0.0247317   0.238487   0 255   0
  0.146968 -0.0236803   0.238309   0 255   0
  0.147204 -0.0218461   0.238185   0 255   0
  0.147409 -0.0192887   0.238148   0 255   0
  0.147572 -0.0160669   0.238212   0 255   0
  0.147696 -0.0122234   0.238373   0 255   0
   0.147796 -0.00777828    0.238603   0 255   0
   0.147885 -0.00274229    0.238866   0 255   0
  0.147971 0.00285973   0.239126   0 255   0
  0.148049 0.00897377   0.239355   0 255   0
 0.148109 0.0155331  0.239542   0 255   0
 0.148149 0.0224937  0.239691   0 255   0
 0.148691 0.0800419  0.241001   0 255   0
 0.148649 0.0885388  0.241382   0 255   0
 0.148578 0.0969817  0.241792   0 255   0
0.148173 0.121302 0.243004   0 255   0
0.147959 0.128698 0.243344   0 255   0
0.147718 0.135537 0.243626   0 255   0
0.147452 0.141699  0.24384   0 255   0
0.147146 0.147061 0.243976   0 255   0
0.146777 0.151509 0.244031   0 255   0
0.146327 0.154943 0.244005   0 255   0
0.145196 0.158502 0.243738   0 255   0
0.144569 0.158559 0.243526   0 255   0
0.143376 0.155222 0.243054   0 255   0
0.142876 0.151892 0.242847   0 255   0
0.142469 0.147544 0.242694   0 255   0
0.142159 0.142266 0.242619   0 255   0
0.141936 0.136145 0.242646   0 255   0
0.141783 0.129251 0.242791   0 255   0
 0.140424 0.0139223  0.244744   0 255   0
 0.140575 0.0060671  0.244492   0 255   0
   0.140756 -0.00137063    0.244265   0 255   0
   0.140945 -0.00835091    0.244054   0 255   0
  0.141127 -0.0148214   0.243841   0 255   0
  0.141287 -0.0207055   0.243606   0 255   0
  0.141408 -0.0259066   0.243335   0 255   0
  0.141477 -0.0303209   0.243023   0 255   0
 0.141486 -0.033853  0.242678   0 255   0
  0.141431 -0.0364279   0.242312   0 255   0
  0.141321 -0.0380011   0.241946   0 255   0
  0.141177 -0.0385648   0.241602   0 255   0
  0.141031 -0.0381405   0.241297   0 255   0
  0.140908 -0.0367573   0.241044   0 255   0
 0.140766 -0.031196  0.240708   0 255   0
  0.140734 -0.0271055   0.240631   0 255   0
  0.140686 -0.0168744   0.240705   0 255   0
  0.140654 -0.0109777   0.240877   0 255   0
   0.140626 -0.00460787    0.241137   0 255   0
  0.140615 0.00227028    0.24147   0 255   0
  0.140629 0.00965685   0.241857   0 255   0
 0.140681 0.0254967  0.242726   0 255   0
 0.140667 0.0336292  0.243178   0 255   0
 0.140594 0.0417749  0.243619   0 255   0
 0.140451 0.0499285   0.24403   0 255   0
 0.140253 0.0581089  0.244408   0 255   0
 0.140041 0.0663149  0.244763   0 255   0
 0.139717 0.0826545  0.245495   0 255   0
 0.139412 0.0985301  0.246381   0 255   0
0.139143 0.106189 0.246881   0 255   0
 0.13842 0.120954 0.247879   0 255   0
0.138068 0.128049 0.248314   0 255   0
0.137754 0.134856 0.248675   0 255   0
0.137462 0.141234 0.248951   0 255   0
0.137176 0.147044 0.249137   0 255   0
0.136899 0.152188 0.249233   0 255   0
0.136654   0.1566 0.249243   0 255   0
0.136462 0.160213 0.249176   0 255   0
0.136335 0.162939 0.249053   0 255   0
0.136266 0.164675 0.248905   0 255   0
0.136243 0.165338 0.248758   0 255   0
0.136254 0.164889 0.248639   0 255   0
0.136289 0.163336 0.248561   0 255   0
0.136344  0.16071 0.248531   0 255   0
0.136511 0.152397 0.248607   0 255   0
0.136615 0.146826 0.248694   0 255   0
0.136793  0.13334 0.248899   0 255   0
0.136863 0.125647 0.249005   0 255   0
 0.13697 0.117434 0.249124   0 255   0
 0.139483 0.0513976  0.249995   0 255   0
 0.139695 0.0418319  0.249728   0 255   0
 0.139829 0.0325103  0.249293   0 255   0
  0.13987 0.0235156  0.248736   0 255   0
 0.139835 0.0149058  0.248134   0 255   0
   0.139801 -0.00108016    0.247159   0 255   0
    0.13995 -0.00843331    0.246923   0 255   0
  0.140608 -0.0216093   0.246956   0 255   0
  0.141004 -0.0272637   0.247098   0 255   0
  0.141371 -0.0321927   0.247216   0 255   0
  0.141679 -0.0363449   0.247247   0 255   0
  0.141923 -0.0396931   0.247166   0 255   0
  0.142111 -0.0422326   0.246995   0 255   0
  0.142261 -0.0439739   0.246794   0 255   0
  0.142396 -0.0449336   0.246641   0 255   0
 0.142542 -0.045126  0.246612   0 255   0
  0.142712 -0.0445572   0.246765   0 255   0
 0.142901 -0.043223  0.247122   0 255   0
   0.14308 -0.0411112    0.24767   0 255   0
   0.14321 -0.0382076   0.248366   0 255   0
  0.143263 -0.0345034   0.249151   0 255   0
   0.14314 -0.0247079     0.2507   0 255   0
  0.143029 -0.0186409   0.251325   0 255   0
 0.142977 0.0222539  0.251283   0 255   0
0.138108 0.139896 0.246918   0 255   0
0.137893 0.147333 0.246783   0 255   0
0.137443 0.158995 0.246584   0 255   0
 0.13726 0.163038 0.246569   0 255   0
0.137099 0.165766 0.246654   0 255   0
0.136912 0.167087 0.246869   0 255   0
 0.13667 0.166965 0.247236   0 255   0
0.136388 0.165464 0.247757   0 255   0
0.136114 0.162743 0.248407   0 255   0
0.135883 0.159003 0.249139   0 255   0
 0.13569 0.154434 0.249893   0 255   0
0.135496 0.149201 0.250607   0 255   0
0.135267 0.143444 0.251232   0 255   0
   0.135 0.137288 0.251733   0 255   0
0.134724 0.130819   0.2521   0 255   0
 0.13447  0.12407 0.252345   0 255   0
0.134083 0.109604 0.252594   0 255   0
 0.134393 0.0674005  0.253167   0 255   0
 0.135275 0.0493046  0.253567   0 255   0
 0.137403 0.0142225  0.254116   0 255   0
   0.13794 0.00608295   0.254123   0 255   0
   0.138476 -0.00173323    0.254091   0 255   0
   0.138978 -0.00921636    0.254046   0 255   0
  0.139399 -0.0163525   0.254014   0 255   0
  0.139712 -0.0231049   0.254015   0 255   0
 0.140105 -0.035137  0.254149   0 255   0
  0.140276 -0.0402015   0.254259   0 255   0
   0.14062 -0.0479625    0.25444   0 255   0
  0.140757 -0.0505402   0.254463   0 255   0
  0.140866 -0.0521998   0.254428   0 255   0
  0.140964 -0.0529216   0.254345   0 255   0
  0.141065 -0.0526922   0.254235   0 255   0
  0.141158 -0.0515016   0.254119   0 255   0
  0.141221 -0.0493546   0.254015   0 255   0
  0.141234 -0.0462946   0.253932   0 255   0
 0.141197 -0.042418  0.253868   0 255   0
   0.14113 -0.0378499   0.253806   0 255   0
  0.141046 -0.0326955   0.253722   0 255   0
  0.140941 -0.0270003   0.253585   0 255   0
  0.140803 -0.0207621   0.253369   0 255   0
  0.140637 -0.0139732   0.253056   0 255   0
 0.140429 0.0261094  0.250536   0 255   0
 0.140379 0.0346812   0.25001   0 255   0
 0.140258 0.0432812  0.249524   0 255   0
 0.140116 0.0519038   0.24909   0 255   0
 0.139791 0.0857884  0.247966   0 255   0
 0.139675 0.0938421  0.247821   0 255   0
0.139533 0.101745 0.247705   0 255   0
0.139388 0.109536 0.247599   0 255   0
0.139261  0.11721 0.247484   0 255   0
0.139162 0.124709 0.247341   0 255   0
0.139077 0.131934 0.247155   0 255   0
0.138798 0.145096 0.246611   0 255   0
 0.13853 0.150823 0.246243   0 255   0
0.137796 0.160269 0.245337   0 255   0
 0.13741 0.163932 0.244829   0 255   0
0.137023 0.166848 0.244312   0 255   0
0.136612 0.168969 0.243814   0 255   0
0.136165 0.170241 0.243366   0 255   0
0.135707 0.170624 0.243001   0 255   0
0.135296 0.170084  0.24275   0 255   0
0.134974 0.168586 0.242636   0 255   0
0.134745 0.166078 0.242678   0 255   0
0.134578 0.162522 0.242875   0 255   0
 0.13445 0.157929 0.243214   0 255   0
0.134371  0.15238 0.243663   0 255   0
0.134382 0.146003 0.244181   0 255   0
0.134504 0.138917 0.244729   0 255   0
   0.137365 -0.00448163    0.249707   0 255   0
  0.137419 -0.0113761   0.249806   0 255   0
  0.137478 -0.0173591   0.249847   0 255   0
  0.137535 -0.0224142   0.249818   0 255   0
  0.137581 -0.0296646   0.249493   0 255   0
  0.137544 -0.0318209   0.249181   0 255   0
  0.137368 -0.0331689   0.248295   0 255   0
  0.137255 -0.0323797   0.247779   0 255   0
  0.137133 -0.0306373   0.247268   0 255   0
  0.136997 -0.0279618   0.246805   0 255   0
  0.136843 -0.0243729   0.246424   0 255   0
  0.136679 -0.0198881   0.246144   0 255   0
  0.136527 -0.0145304   0.245965   0 255   0
   0.136413 -0.00833894    0.245868   0 255   0
   0.136362 -0.00137614    0.245829   0 255   0
  0.136392 0.00627359   0.245821   0 255   0
 0.136511 0.0145108  0.245825   0 255   0
 0.139063 0.0994571  0.247707   0 255   0
0.139931 0.117626 0.248506   0 255   0
0.140381 0.126207 0.248809   0 255   0
0.140798 0.134318 0.249011   0 255   0
0.141174  0.14182 0.249098   0 255   0
 0.14151 0.148547 0.249066   0 255   0
0.141812 0.154317 0.248928   0 255   0
0.142082 0.158964 0.248707   0 255   0
0.142317 0.162371 0.248432   0 255   0
0.142507 0.164497 0.248137   0 255   0
0.142632  0.16537 0.247855   0 255   0
0.142685 0.165056  0.24761   0 255   0
0.142617 0.161199 0.247303   0 255   0
0.142539 0.157821 0.247252   0 255   0
0.142351 0.148562 0.247324   0 255   0
     0.13651 -0.000614153     0.239129   0 255   0
   0.13613 -0.0145849   0.238406   0 255   0
  0.135959 -0.0210175   0.238106   0 255   0
  0.135767 -0.0269896   0.237818   0 255   0
  0.135529 -0.0324522   0.237526   0 255   0
0.135236 -0.03734 0.237217   0 255   0
  0.134892 -0.0415485   0.236875   0 255   0
  0.134513 -0.0449501   0.236483   0 255   0
   0.13411 -0.0474386   0.236032   0 255   0
  0.133672 -0.0489679    0.23552   0 255   0
  0.133179 -0.0495421   0.234955   0 255   0
 0.132625 -0.049173  0.234349   0 255   0
  0.131469 -0.0455133   0.233041   0 255   0
  0.130958 -0.0421726   0.232349   0 255   0
  0.130086 -0.0327085   0.230941   0 255   0
  0.129661 -0.0268072   0.230254   0 255   0
  0.128828 -0.0131539   0.228965   0 255   0
0.128011 0.124538 0.226438   0 255   0
0.128288 0.139834  0.22726   0 255   0
0.128424 0.146725 0.227655   0 255   0
0.128514 0.152924 0.228015   0 255   0
0.128546  0.15831 0.228328   0 255   0
 0.12852 0.162762 0.228593   0 255   0
0.128439 0.166152 0.228819   0 255   0
0.128311 0.168354 0.229023   0 255   0
 0.12814  0.16928 0.229222   0 255   0
0.127931 0.168912 0.229426   0 255   0
0.127692  0.16729 0.229636   0 255   0
0.127436 0.164485 0.229846   0 255   0
0.127189 0.160557 0.230045   0 255   0
0.126978 0.155561 0.230224   0 255   0
0.126807  0.14957 0.230373   0 255   0
0.123979 0.024845 0.229001   0 255   0
 0.123819 0.0191379  0.228762   0 255   0
 0.123673 0.0142401  0.228477   0 255   0
 0.123554 0.0101837  0.228137   0 255   0
  0.123398 0.00464924    0.22725   0 255   0
  0.123343 0.00318487   0.226684   0 255   0
  0.123205 0.00292865   0.225307   0 255   0
  0.123111 0.00416168   0.224523   0 255   0
  0.123015 0.00628573   0.223712   0 255   0
  0.122941 0.00926038   0.222911   0 255   0
 0.122913 0.0130449  0.222156   0 255   0
  0.12295 0.0176149  0.221473   0 255   0
 0.123057 0.0229458  0.220878   0 255   0
 0.123227 0.0289778  0.220382   0 255   0
 0.123446 0.0355912  0.219991   0 255   0
 0.123697 0.0426235  0.219714   0 255   0
 0.123964 0.0499191  0.219557   0 255   0
 0.124235 0.0573737   0.21952   0 255   0
 0.124507 0.0649392  0.219601   0 255   0
 0.124785 0.0725924  0.219794   0 255   0
 0.125385 0.0880299  0.220487   0 255   0
  0.12572 0.0957176  0.220962   0 255   0
0.126447 0.110773  0.22205   0 255   0
0.126822 0.118036 0.222601   0 255   0
0.127189 0.125038 0.223117   0 255   0
0.127538 0.131703 0.223573   0 255   0
0.127869 0.137942 0.223953   0 255   0
  0.1282 0.143659 0.224252   0 255   0
0.128553 0.148757 0.224472   0 255   0
0.128942 0.153137 0.224617   0 255   0
0.129359 0.156707 0.224697   0 255   0
0.129779 0.159388 0.224716   0 255   0
0.130191 0.161128 0.224682   0 255   0
0.130614 0.161909 0.224602   0 255   0
0.131095 0.161736 0.224483   0 255   0
0.131679 0.160623 0.224333   0 255   0
  0.1332  0.15561 0.223964   0 255   0
0.134113  0.15173 0.223756   0 255   0
0.136207 0.141413 0.223328   0 255   0
0.137402 0.135113 0.223141   0 255   0
0.138702 0.128159 0.223006   0 255   0
  0.1401 0.120631 0.222958   0 255   0
0.141586 0.112591 0.223033   0 255   0
 0.155976 0.0322652  0.229466   0 255   0
 0.159071 0.0168773  0.230883   0 255   0
  0.160592 0.00964217   0.231439   0 255   0
  0.163552 -0.0038922   0.232257   0 255   0
     0.165 -0.0101455   0.232546   0 255   0
  0.166437 -0.0159837    0.23278   0 255   0
   0.16787 -0.0213263   0.232974   0 255   0
  0.169308 -0.0260829   0.233141   0 255   0
  0.170764 -0.0301645   0.233285   0 255   0
   0.17225 -0.0334908   0.233401   0 255   0
  0.173771 -0.0359922   0.233473   0 255   0
  0.175321 -0.0376116   0.233479   0 255   0
  0.176887 -0.0383063   0.233393   0 255   0
   0.17845 -0.0380532   0.233189   0 255   0
  0.179999 -0.0368523   0.232844   0 255   0
  0.181524 -0.0347257   0.232342   0 255   0
  0.183016 -0.0317134   0.231674   0 255   0
  0.185832 -0.0232797   0.229841   0 255   0
  0.187111 -0.0180592   0.228711   0 255   0
    0.18931 -0.00644765    0.226205   0 255   0
     0.19022 -0.000449651     0.224925   0 255   0
   0.19103 0.00546625   0.223681   0 255   0
 0.191771 0.0112112  0.222499   0 255   0
 0.192455 0.0167408  0.221378   0 255   0
 0.193056 0.0220274  0.220298   0 255   0
 0.193512 0.0270473  0.219228   0 255   0
 0.193767 0.0317912  0.218134   0 255   0
 0.193793 0.0362708  0.216996   0 255   0
  0.19359 0.0405038  0.215813   0 255   0
 0.193156 0.0444886  0.214607   0 255   0
 0.192451 0.0481932  0.213411   0 255   0
 0.191402 0.0515629  0.212262   0 255   0
 0.189938 0.0545404  0.211201   0 255   0
 0.185601 0.0591855  0.209475   0 255   0
 0.182704 0.0608473  0.208856   0 255   0
 0.175391 0.0629525  0.208125   0 255   0
 0.170943 0.0634667  0.207988   0 255   0
  0.16597 0.0636831  0.207972   0 255   0
 0.160504 0.0636562  0.208048   0 255   0
 0.154589 0.0634459  0.208183   0 255   0
0.000615981   0.0650215    0.210935   0 255   0
-0.00509117   0.0652282    0.211227   0 255   0
-0.0103995  0.0653924   0.211519   0 255   0
-0.0153034  0.0655265   0.211801   0 255   0
-0.0197931  0.0656417   0.212061   0 255   0
-0.0238502  0.0657468   0.212284   0 255   0
-0.0274486  0.0658489   0.212454   0 255   0
-0.0331443  0.0660731   0.212592   0 255   0
-0.0351943  0.0661995   0.212552   0 255   0
-0.0377132  0.0664257    0.21229   0 255   0
-0.0382112  0.0664913   0.212091   0 255   0
-0.0381898  0.0665133   0.211862   0 255   0
-0.0376174  0.0664958   0.211607   0 255   0
-0.0364809  0.0664485   0.211321   0 255   0
-0.0348138  0.0663789   0.210987   0 255   0
-0.0326848  0.0662908   0.210583   0 255   0
-0.030152  0.066189  0.210089   0 255   0
-0.0272202  0.0660822   0.209496   0 255   0
-0.0238423  0.0659796   0.208808   0 255   0
-0.0199598  0.0658848    0.20804   0 255   0
-0.0155448  0.0657908   0.207214   0 255   0
-0.0106109  0.0656816   0.206352   0 255   0
-0.00519697   0.0655398    0.205473   0 255   0
0.00689422  0.0651229   0.203714   0 255   0
 0.214042 0.0498987  0.194123   0 255   0
  0.21928 0.0496666  0.194099   0 255   0
 0.224262 0.0494677  0.194071   0 255   0
 0.228979 0.0492925  0.194043   0 255   0
 0.233402 0.0491385  0.194014   0 255   0
 0.237494 0.0490114  0.193985   0 255   0
 0.241209 0.0489208  0.193953   0 255   0
 0.247345 0.0488846  0.193885   0 255   0
 0.249698 0.0489438  0.193852   0 255   0
 0.252834 0.0491725  0.193806   0 255   0
 0.253564 0.0493117  0.193799   0 255   0
   0.2537 0.0494506  0.193806   0 255   0
 0.253208 0.0495841  0.193828   0 255   0
 0.252047 0.0497137  0.193862   0 255   0
 0.250164 0.0498455    0.1939   0 255   0
 0.247509 0.0499874  0.193938   0 255   0
 0.244052 0.0501481  0.193973   0 255   0
 0.239799 0.0503351  0.194008   0 255   0
  0.23479 0.0505524  0.194057   0 255   0
 0.229074 0.0507978  0.194134   0 255   0
0.222681 0.051062 0.194247   0 255   0
 0.215621 0.0513327  0.194403   0 255   0
0.00289073  0.0600961   0.213366   0 255   0
-0.0030954  0.0599015   0.214258   0 255   0
-0.0122894  0.0590583   0.215858   0 255   0
-0.0155573  0.0585309   0.216448   0 255   0
-0.0179248  0.0580005   0.216804   0 255   0
-0.019327  0.057488  0.216859   0 255   0
-0.019703 0.0570012  0.216574   0 255   0
-0.0190409  0.0565476   0.215941   0 255   0
-0.0173794  0.0561325   0.214992   0 255   0
-0.0147695  0.0557453   0.213781   0 255   0
-0.0112361  0.0553488    0.21238   0 255   0
-0.006778 0.0548893  0.210867   0 255   0
-0.00140066   0.0543271    0.209305   0 255   0
0.209353  0.04636 0.179069   0 255   0
 0.216963 0.0462561  0.178227   0 255   0
0.231056  0.04622 0.176828   0 255   0
0.237484 0.046283  0.17628   0 255   0
 0.243448 0.0463809  0.175836   0 255   0
 0.248904 0.0464886  0.175497   0 255   0
 0.253807 0.0465791  0.175259   0 255   0
  0.25811 0.0466295  0.175117   0 255   0
 0.261769 0.0466261  0.175065   0 255   0
 0.264735 0.0465669  0.175089   0 255   0
 0.266955 0.0464589  0.175177   0 255   0
 0.268381 0.0463166  0.175313   0 255   0
 0.268969 0.0461629  0.175482   0 255   0
0.268699  0.04603 0.175667   0 255   0
 0.267572 0.0459523  0.175856   0 255   0
 0.265618 0.0459541  0.176037   0 255   0
 0.259443 0.0461949  0.176353   0 255   0
 0.255371 0.0464011  0.176488   0 255   0
 0.245734 0.0469314  0.176759   0 255   0
 0.240363 0.0472463  0.176929   0 255   0
 0.234719 0.0475684  0.177147   0 255   0
 0.228839 0.0478606  0.177426   0 255   0
 0.222742 0.0480924  0.177778   0 255   0
  0.21644 0.0482604    0.1782   0 255   0
 0.209948 0.0483871  0.178685   0 255   0
 0.196431 0.0486105  0.179785   0 255   0
 0.189417 0.0487097  0.180372   0 255   0
 0.182231 0.0487815  0.180972   0 255   0
 0.174872 0.0488179  0.181588   0 255   0
 0.167333 0.0488237  0.182228   0 255   0
 0.159612 0.0488122  0.182901   0 255   0
 0.143645 0.0487989  0.184372   0 255   0
 0.135416 0.0488208  0.185164   0 255   0
 0.118475 0.0489404  0.186802   0 255   0
 0.109779 0.0490402  0.187619   0 255   0
 0.100967 0.0491815  0.188419   0 255   0
0.0920903 0.0493881  0.189201   0 255   0
0.0831898 0.0496828  0.189976   0 255   0
0.0742801 0.0500774  0.190757   0 255   0
0.0653502 0.0505699  0.191559   0 255   0
0.0563945 0.0511502  0.192393   0 255   0
0.0474435 0.0518066  0.193263   0 255   0
0.038565 0.052527 0.194167   0 255   0
0.0298382 0.0532995    0.1951   0 255   0
0.0213261 0.0541113  0.196052   0 255   0
0.0130659 0.0549471  0.197011   0 255   0
0.00507418  0.0557853   0.197967   0 255   0
-0.0100914  0.0573539   0.199831   0 255   0
-0.017273 0.0580411  0.200723   0 255   0
-0.0308563  0.0592922   0.202401   0 255   0
-0.0372332   0.059929   0.203181   0 255   0
-0.0432717  0.0605909   0.203919   0 255   0
-0.0488981  0.0612551   0.204616   0 255   0
-0.0540491  0.0618934   0.205269   0 255   0
-0.0587008  0.0624963   0.205874   0 255   0
-0.0628695  0.0630773    0.20642   0 255   0
-0.0665839  0.0636545   0.206898   0 255   0
-0.0698546  0.0642317   0.207298   0 255   0
-0.0726694   0.064793    0.20762   0 255   0
-0.0750141  0.0653132   0.207867   0 255   0
-0.0768934  0.0657697   0.208045   0 255   0
-0.0783318  0.0661466   0.208168   0 255   0
-0.0793528  0.0664315   0.208253   0 255   0
-0.0801334  0.0666785   0.208403   0 255   0
-0.0798591   0.066627    0.20851   0 255   0
-0.0780174  0.0662224   0.208804   0 255   0
-0.0765157  0.0659169    0.20896   0 255   0
-0.0746546  0.0655711    0.20909   0 255   0
-0.0724271  0.0651975   0.209173   0 255   0
-0.0698137  0.0648073   0.209192   0 255   0
-0.0667959  0.0644166   0.209136   0 255   0
-0.0633583  0.0640459      0.209   0 255   0
-0.059481 0.0637131  0.208784   0 255   0
-0.0551311  0.0634253   0.208496   0 255   0
-0.0502656  0.0631772   0.208147   0 255   0
-0.0448457  0.0629535   0.207753   0 255   0
-0.0388491  0.0627328   0.207325   0 255   0
-0.0322778  0.0624928   0.206876   0 255   0
  0.26742 0.0501531  0.202096   0 255   0
 0.273187 0.0502276  0.202372   0 255   0
 0.278423 0.0502746   0.20264   0 255   0
 0.283101 0.0502978  0.202892   0 255   0
 0.287192 0.0503048  0.203124   0 255   0
 0.293479 0.0502455  0.203518   0 255   0
 0.295623 0.0501518  0.203679   0 255   0
 0.297892 0.0498679  0.203936   0 255   0
 0.298058 0.0497357  0.204035   0 255   0
 0.297623 0.0496439  0.204119   0 255   0
 0.296625 0.0496017  0.204192   0 255   0
 0.295095 0.0496075  0.204258   0 255   0
 0.293056 0.0496559  0.204324   0 255   0
 0.29052 0.049742 0.204394   0 255   0
 0.287501 0.0498623  0.204475   0 255   0
 0.284025 0.0500144  0.204571   0 255   0
 0.280124 0.0501973  0.204686   0 255   0
 0.275829 0.0504109  0.204819   0 255   0
 0.271149 0.0506537  0.204966   0 255   0
 0.266079 0.0509226  0.205117   0 255   0
 0.260615 0.0512157  0.205263   0 255   0
 0.248583 0.0518855  0.205512   0 255   0
 0.242083 0.0522624  0.205607   0 255   0
0.0382549 0.0566928  0.195147   0 255   0
0.0318659 0.0567491  0.194944   0 255   0
0.0260242 0.0567821  0.194783   0 255   0
0.0207482 0.0568478  0.194634   0 255   0
0.0160745  0.056988  0.194472   0 255   0
0.0120571 0.0572192  0.194279   0 255   0
0.00875333  0.0575373   0.194043   0 255   0
0.00620895  0.0579244   0.193769   0 255   0
0.00444983  0.0583537   0.193473   0 255   0
0.00348522  0.0587934   0.193179   0 255   0
0.00392637  0.0595912   0.192702   0 255   0
0.00531298  0.0599081   0.192553   0 255   0
0.0103561 0.0603263    0.1924   0 255   0
0.0139677 0.0604243   0.19234   0 255   0
0.0182451 0.0604538  0.192244   0 255   0
 0.023124 0.0604224  0.192079   0 255   0
0.0285563 0.0603382  0.191827   0 255   0
0.0345363 0.0602064  0.191486   0 255   0
 0.041093 0.0600296  0.191072   0 255   0
 0.177203 0.0534976  0.185487   0 255   0
 0.183524 0.0535585  0.185252   0 255   0
  0.18947 0.0536873   0.18499   0 255   0
 0.195023 0.0538635   0.18471   0 255   0
 0.200164 0.0540741  0.184422   0 255   0
 0.204873 0.0543103  0.184142   0 255   0
 0.209133 0.0545651  0.183885   0 255   0
 0.212927 0.0548313  0.183663   0 255   0
 0.216234 0.0551014  0.183487   0 255   0
 0.221242 0.0556277  0.183268   0 255   0
 0.222866 0.0558762  0.183212   0 255   0
 0.224227 0.0563599  0.183172   0 255   0
 0.223948 0.0566131  0.183177   0 255   0
 0.223008 0.0568849   0.18319   0 255   0
 0.221383 0.0571795  0.183201   0 255   0
 0.219054 0.0574985  0.183201   0 255   0
 0.216025 0.0578419  0.183186   0 255   0
 0.212327 0.0582082  0.183155   0 255   0
 0.208007 0.0585943  0.183112   0 255   0
 0.203118 0.0589948  0.183061   0 255   0
  0.19771 0.0594026  0.183004   0 255   0
 0.191837 0.0598089   0.18295   0 255   0
 0.185556 0.0602032  0.182906   0 255   0
  0.17893 0.0605755  0.182884   0 255   0
 0.172007 0.0609197  0.182894   0 255   0
0.0531519 0.0645824   0.19057   0 255   0
0.0470377  0.064632  0.191398   0 255   0
0.0415142 0.0647125  0.192128   0 255   0
0.0365896 0.0648671  0.192728   0 255   0
 0.028655 0.0654225  0.193477   0 255   0
0.0257463  0.065759  0.193635   0 255   0
0.0222361 0.0663499  0.193619   0 255   0
0.0216599 0.0665482  0.193492   0 255   0
0.0218823 0.0666486  0.193308   0 255   0
 0.022917 0.0666289  0.193071   0 255   0
0.0247662 0.0664817  0.192776   0 255   0
0.0274054 0.0662255  0.192416   0 255   0
0.0307823    0.0659  0.191983   0 255   0
0.0348318 0.0655419  0.191475   0 255   0
0.0394932 0.0651607  0.190893   0 255   0
0.0447161 0.0647363  0.190247   0 255   0
0.0504557 0.0642429   0.18955   0 255   0
 0.056666 0.0636751  0.188819   0 255   0
 0.227191 0.0568223  0.182796   0 255   0
 0.232689 0.0572167  0.182839   0 255   0
0.242191 0.058056  0.18289   0 255   0
 0.246176 0.0584147  0.182935   0 255   0
  0.24963 0.0586802  0.183017   0 255   0
  0.25253 0.0588304  0.183144   0 255   0
 0.254843 0.0588646  0.183314   0 255   0
  0.25653 0.0588028  0.183515   0 255   0
 0.257555 0.0586778   0.18373   0 255   0
 0.257885 0.0585236  0.183942   0 255   0
 0.257498 0.0583647  0.184139   0 255   0
 0.256383 0.0582106  0.184321   0 255   0
  0.25454 0.0580612  0.184494   0 255   0
 0.251976 0.0579167  0.184673   0 255   0
 0.248705 0.0577831  0.184874   0 255   0
 0.244747 0.0576674  0.185107   0 255   0
 0.234882 0.0574944  0.185666   0 255   0
 0.229057 0.0574337  0.185965   0 255   0
0.0622441 0.0623608  0.200417   0 255   0
 0.056138 0.0625182  0.201414   0 255   0
0.0504453 0.0626301  0.202356   0 255   0
0.0451993 0.0627099  0.203218   0 255   0
0.0404279 0.0627682  0.203978   0 255   0
0.0361596 0.0628168  0.204611   0 255   0
0.0324299 0.0628714  0.205102   0 255   0
0.0292803 0.0629499   0.20544   0 255   0
0.0267514 0.0630632  0.205627   0 255   0
0.0248742 0.0632051  0.205678   0 255   0
0.0236685 0.0633518  0.205618   0 255   0
0.0231497 0.0634711   0.20548   0 255   0
0.0242489 0.0635242  0.205098   0 255   0
0.0258963 0.0634389    0.2049   0 255   0
0.0313076  0.063113  0.204511   0 255   0
0.0349788 0.0629139  0.204305   0 255   0
0.0392305 0.0626919  0.204078   0 255   0
0.0440275 0.0624192  0.203831   0 255   0
0.0493352 0.0620631  0.203575   0 255   0
0.227901 0.056087 0.210219   0 255   0
 0.233337 0.0560794  0.210651   0 255   0
 0.238293 0.0560137  0.211079   0 255   0
0.246524 0.055695 0.211931   0 255   0
 0.249715 0.0554357  0.212361   0 255   0
 0.254059 0.0547212  0.213199   0 255   0
 0.255138 0.0542984  0.213569   0 255   0
 0.255452 0.0538853  0.213874   0 255   0
 0.254988 0.0535409  0.214091   0 255   0
 0.253749 0.0533164  0.214206   0 255   0
 0.251753 0.0532327  0.214216   0 255   0
 0.249031 0.0532735  0.214132   0 255   0
 0.245629 0.0534025  0.213976   0 255   0
 0.241597 0.0535861  0.213774   0 255   0
 0.236993 0.0538043  0.213556   0 255   0
0.0818401  0.057485  0.214978   0 255   0
 0.068519 0.0575215  0.215536   0 255   0
0.0623102 0.0575118  0.215841   0 255   0
0.0509873 0.0574472   0.21652   0 255   0
0.0459649 0.0573851  0.216885   0 255   0
0.0414254 0.0573077  0.217246   0 255   0
0.0374032 0.0572308  0.217581   0 255   0
0.0339221 0.0571749  0.217862   0 255   0
0.0309938 0.0571586  0.218065   0 255   0
0.0286247 0.0571918  0.218176   0 255   0
0.0268377 0.0572694  0.218195   0 255   0
0.0256862 0.0573688  0.218134   0 255   0
0.0252469 0.0574556   0.21802   0 255   0
0.0255923 0.0574933  0.217881   0 255   0
0.0267596 0.0574552  0.217747   0 255   0
0.0287352 0.0573294  0.217637   0 255   0
0.0314635 0.0571162  0.217564   0 255   0
0.0388944 0.0564446  0.217533   0 255   0
0.0434501 0.0560037  0.217571   0 255   0
0.0538046 0.0550532  0.217734   0 255   0
  0.142626 0.00638371   0.158685   0 255   0
  0.142628 0.00627317   0.158566   0 255   0
 0.142654 0.0062604  0.158479   0 255   0
  0.142715 0.00635995   0.158446   0 255   0
  0.142834 0.00661696   0.158488   0 255   0
  0.143025 0.00706393   0.158623   0 255   0
  0.143275 0.00768245   0.158861   0 255   0
  0.143545 0.00841894     0.1592   0 255   0
  0.143798 0.00924655   0.159637   0 255   0
 0.144032 0.0102195  0.160162   0 255   0
 0.144267 0.0114546  0.160762   0 255   0
 0.144525 0.0130508  0.161414   0 255   0
 0.144798 0.0150153  0.162086   0 255   0
 0.145062 0.0172749  0.162744   0 255   0
 0.145293 0.0197628  0.163365   0 255   0
 0.145501 0.0224965  0.163937   0 255   0
 0.145717 0.0255579   0.16446   0 255   0
 0.145978 0.0289888  0.164942   0 255   0
 0.146298 0.0326994  0.165404   0 255   0
 0.146666 0.0364979  0.165869   0 255   0
 0.147061 0.0402248  0.166366   0 255   0
 0.147462 0.0438767  0.166916   0 255   0
 0.147853 0.0475879  0.167527   0 255   0
 0.148221 0.0514836  0.168189   0 255   0
 0.148554 0.0555446   0.16889   0 255   0
 0.148848 0.0596208  0.169624   0 255   0
 0.149107 0.0635792  0.170391   0 255   0
 0.149345 0.0674409  0.171187   0 255   0
 0.149578 0.0713679  0.171997   0 255   0
 0.149813 0.0755168  0.172797   0 255   0
 0.150043 0.0799022  0.173578   0 255   0
 0.150256 0.0844001  0.174353   0 255   0
 0.150437 0.0888734  0.175142   0 255   0
 0.150589 0.0932924  0.175952   0 255   0
 0.150724 0.0977374  0.176762   0 255   0
0.150854 0.102295 0.177545   0 255   0
0.150978 0.106958 0.178295   0 255   0
 0.15109 0.111629  0.17904   0 255   0
0.151182 0.116198  0.17982   0 255   0
0.151252 0.120621 0.180667   0 255   0
0.151302 0.124931 0.181592   0 255   0
0.151347 0.129181  0.18259   0 255   0
0.151416 0.133407 0.183646   0 255   0
0.151539 0.137605 0.184734   0 255   0
0.151726 0.141769 0.185817   0 255   0
0.151953  0.14591 0.186839   0 255   0
0.152174 0.150054  0.18774   0 255   0
0.152345 0.154205 0.188475   0 255   0
0.152456 0.158315 0.189037   0 255   0
0.152527 0.162287 0.189459   0 255   0
0.152586 0.166021 0.189794   0 255   0
0.152643 0.169448 0.190089   0 255   0
0.152689 0.172545 0.190377   0 255   0
0.152715 0.175312 0.190672   0 255   0
0.152734 0.177752  0.19097   0 255   0
0.152776 0.179864 0.191252   0 255   0
0.152864 0.181638 0.191497   0 255   0
0.152987 0.183056 0.191686   0 255   0
0.153108 0.184099 0.191809   0 255   0
0.153186 0.184751 0.191868   0 255   0
0.153205 0.185005 0.191873   0 255   0
0.153175 0.184865 0.191838   0 255   0
0.153116 0.184341 0.191776   0 255   0
0.153044 0.183449 0.191701   0 255   0
0.152967 0.182209 0.191622   0 255   0
0.152886 0.180652 0.191534   0 255   0
0.152807 0.178828 0.191419   0 255   0
0.152737 0.176794 0.191252   0 255   0
0.152679 0.174611 0.191008   0 255   0
0.152635  0.17233 0.190667   0 255   0
0.152596 0.169989 0.190222   0 255   0
0.152546 0.167608  0.18968   0 255   0
0.152469 0.165191 0.189056   0 255   0
0.152347 0.162728 0.188368   0 255   0
0.152169 0.160204 0.187628   0 255   0
0.151936 0.157605 0.186839   0 255   0
0.151654 0.154911 0.185996   0 255   0
0.151337  0.15209 0.185092   0 255   0
 0.15099 0.149089 0.184134   0 255   0
0.150613 0.145843 0.183134   0 255   0
0.150201 0.142305 0.182113   0 255   0
0.149746  0.13847 0.181086   0 255   0
0.149252 0.134376 0.180068   0 255   0
 0.14874 0.130079 0.179071   0 255   0
0.148261  0.12563  0.17811   0 255   0
0.147878 0.121062 0.177195   0 255   0
0.147622 0.116386 0.176334   0 255   0
0.147463 0.111597 0.175524   0 255   0
0.147317 0.106684 0.174762   0 255   0
0.147107 0.101631 0.174034   0 255   0
 0.146827 0.0964298  0.173328   0 255   0
 0.146528 0.0910815  0.172629   0 255   0
 0.146272 0.0856047  0.171928   0 255   0
 0.146062 0.0800303  0.171224   0 255   0
 0.145843 0.0743948  0.170519   0 255   0
 0.145561 0.0687319  0.169819   0 255   0
  0.14521 0.0630653  0.169123   0 255   0
 0.144841 0.0574146  0.168424   0 255   0
 0.14452 0.051816 0.167708   0 255   0
 0.144284 0.0463394  0.166956   0 255   0
 0.144129 0.0410753  0.166154   0 255   0
 0.14403  0.03609 0.165299   0 255   0
 0.143961 0.0313835  0.164396   0 255   0
 0.143905 0.0268957   0.16346   0 255   0
 0.143845 0.0225566  0.162505   0 255   0
 0.143771 0.0183381  0.161544   0 255   0
 0.143676 0.0142598  0.160594   0 255   0
 0.143563 0.0103535  0.159673   0 255   0
  0.143443 0.00662603   0.158795   0 255   0
  0.143328 0.00305482   0.157966   0 255   0
     0.14323 -0.000386589     0.157189   0 255   0
   0.143152 -0.00370155    0.156462   0 255   0
   0.143093 -0.00686165    0.155784   0 255   0
   0.143049 -0.00981539    0.155155   0 255   0
 0.143028 -0.012501  0.154577   0 255   0
 0.143039 -0.014859  0.154049   0 255   0
  0.143089 -0.0168436   0.153573   0 255   0
  0.143163 -0.0184322   0.153146   0 255   0
   0.14323 -0.0196282   0.152768   0 255   0
  0.143263 -0.0204556   0.152436   0 255   0
  0.143256 -0.0209481    0.15215   0 255   0
  0.143222 -0.0211411    0.15191   0 255   0
   0.14318 -0.0210693   0.151718   0 255   0
  0.143137 -0.0207628   0.151578   0 255   0
 0.143086 -0.020247  0.151496   0 255   0
  0.143013 -0.0195467   0.151478   0 255   0
   0.14291 -0.0186918   0.151523   0 255   0
  0.142776 -0.0177163   0.151632   0 255   0
  0.142617 -0.0166491   0.151803   0 255   0
  0.142445 -0.0155049    0.15204   0 255   0
  0.142272 -0.0142845   0.152352   0 255   0
  0.142116 -0.0129819   0.152744   0 255   0
  0.141996 -0.0115922   0.153218   0 255   0
  0.141926 -0.0101151   0.153766   0 255   0
     0.1419 -0.00855487    0.154371   0 255   0
    0.14188 -0.00691964     0.15501   0 255   0
   0.141813 -0.00521083    0.155652   0 255   0
   0.141675 -0.00340045    0.156279   0 255   0
   0.141503 -0.00141097    0.156888   0 255   0
   0.141379 0.000865784    0.157481   0 255   0
  0.141372 0.00350818   0.158059   0 255   0
  0.141476 0.00650848   0.158612   0 255   0
  0.14162 0.0097838  0.159126   0 255   0
 0.141726 0.0132522  0.159597   0 255   0
0.141771 0.016907  0.16004   0 255   0
 0.141796 0.0208144  0.160483   0 255   0
 0.141861 0.0250335   0.16095   0 255   0
    0.142 0.0295355  0.161451   0 255   0
  0.14221 0.0342088  0.161987   0 255   0
 0.142469 0.0389508   0.16256   0 255   0
 0.142762 0.0437592  0.163184   0 255   0
0.143084 0.048731 0.163872   0 255   0
 0.143435 0.0539704  0.164624   0 255   0
 0.143805 0.0594942  0.165426   0 255   0
 0.144181 0.0652213   0.16626   0 255   0
 0.144553 0.0710471  0.167111   0 255   0
 0.144922 0.0769189  0.167971   0 255   0
 0.145294 0.0828468  0.168834   0 255   0
 0.145671 0.0888498  0.169694   0 255   0
 0.146036 0.0949001  0.170547   0 255   0
0.146357 0.100921 0.171395   0 255   0
0.146614 0.106839 0.172243   0 255   0
0.146817 0.112629 0.173095   0 255   0
0.147008 0.118321 0.173953   0 255   0
0.147229 0.123953 0.174815   0 255   0
0.147491 0.129534 0.175681   0 255   0
0.147772 0.135036 0.176553   0 255   0
0.148037 0.140422 0.177436   0 255   0
0.148254 0.145684 0.178322   0 255   0
