ply
format ascii 1.0
element vertex 159
property float x
property float y
property float z
property uchar red
property uchar green
property uchar blue
end_header
0.021 0.042     0 0 0 0
0.189 0.021     0 0 0 0
0.168 0.021     0 0 0 0
0.189 0.147     0 0 0 0
0.168 0.084     0 0 0 0
0.147 0.084     0 0 0 0
0.126 0.084     0 0 0 0
0.084 0.021     0 0 0 0
0.042 0.084     0 0 0 0
0.021 0.084     0 0 0 0
0.189 0.063     0 0 0 0
0.168 0.063     0 0 0 0
0.147 0.063     0 0 0 0
0.126 0.063     0 0 0 0
0.105 0.063     0 0 0 0
0.084 0.063     0 0 0 0
0.063 0.063     0 0 0 0
0.063 0.084     0 0 0 0
0.021 0.021     0 0 0 0
0.126 0.147     0 0 0 0
0.105 0.042     0 0 0 0
0.084 0.084     0 0 0 0
0.042 0.021     0 0 0 0
0.147 0.147     0 0 0 0
0.126 0.042     0 0 0 0
0.042 0.042     0 0 0 0
0.063 0.042     0 0 0 0
0.084 0.042     0 0 0 0
0.147 0.042     0 0 0 0
0.105 0.084     0 0 0 0
0.063 0.021     0 0 0 0
0.168 0.147     0 0 0 0
0.168 0.042     0 0 0 0
0.189 0.042     0 0 0 0
0.021 0.063     0 0 0 0
0.042 0.063     0 0 0 0
0.189 0.084     0 0 0 0
0.021 0.105     0 0 0 0
0.042 0.105     0 0 0 0
0.063 0.105     0 0 0 0
0.084 0.105     0 0 0 0
0.105 0.021     0 0 0 0
0.105 0.105     0 0 0 0
0.126 0.105     0 0 0 0
0.147 0.105     0 0 0 0
0.168 0.105     0 0 0 0
0.189 0.105     0 0 0 0
0.021 0.126     0 0 0 0
0.042 0.126     0 0 0 0
0.063 0.126     0 0 0 0
0.084 0.126     0 0 0 0
0.105 0.126     0 0 0 0
0.126 0.021     0 0 0 0
0.126 0.126     0 0 0 0
0.147 0.126     0 0 0 0
0.168 0.126     0 0 0 0
0.189 0.126     0 0 0 0
0.021 0.147     0 0 0 0
0.042 0.147     0 0 0 0
0.063 0.147     0 0 0 0
0.084 0.147     0 0 0 0
0.105 0.147     0 0 0 0
0.147 0.021     0 0 0 0
 0.162802 0.0110025  0.141889 255   0   0
   0.14263 -0.0115882   0.135762 255   0   0
  0.123719 -0.0368757   0.140975 255   0   0
 0.0931756 -0.0356695   0.146228 255   0   0
 0.0649036 -0.0245964   0.149426 255   0   0
 0.0345766 -0.0164989   0.151888 255   0   0
 0.00563592 -0.00726266    0.153384 255   0   0
-0.00978213   0.0199113    0.156305 255   0   0
-0.0159889  0.0490034   0.164712 255   0   0
0.000905305   0.0762733    0.148288 255   0   0
-0.0126465  0.0764807   0.179888 255   0   0
 -0.01649 0.0823122  0.226277 255   0   0
0.0269356  0.153728  0.219263 255   0   0
0.105084  0.19702  0.18844 255   0   0
0.141741 0.206773 0.206328 255   0   0
0.150968 0.193641  0.17765 255   0   0
0.175325 0.200995 0.194583 255   0   0
0.191186 0.184579 0.165121 255   0   0
0.220143 0.173442 0.167013 255   0   0
 0.26861 0.141487 0.161601 255   0   0
0.261159 0.114124 0.150529 255   0   0
0.255184 0.182519 0.187241 255   0   0
0.247175 0.174275 0.153242 255   0   0
0.240527 0.176443 0.119865 255   0   0
0.210824 0.173309 0.109206 255   0   0
0.178368 0.175239 0.109168 255   0   0
  0.1485 0.169381 0.114374 255   0   0
 0.248225 0.0846794   0.14787 255   0   0
0.125113 0.168338 0.134771 255   0   0
0.0981074  0.149361  0.128592 255   0   0
0.0941986   0.11532  0.107261 255   0   0
0.0807721 0.0868351  0.116125 255   0   0
0.0703898 0.0571777  0.110825 255   0   0
0.0721542 0.0287725 0.0978826 255   0   0
 0.101776 0.0197159  0.095398 255   0   0
 0.130466 0.0275262  0.101234 255   0   0
 0.150313 0.0460824  0.114941 255   0   0
0.0368401   0.11186  0.345276 255   0   0
0.0146918  0.101763  0.276089 255   0   0
0.00910809  0.0892337   0.205479 255   0   0
0.0143444  0.100866  0.235147 255   0   0
0.0127904 0.0908744   0.17215 255   0   0
0.0010995  0.121435  0.342793 255   0   0
0.00988469   0.143389   0.368832 255   0   0
0.0149483  0.129189  0.294592 255   0   0
0.0294703  0.125622  0.256086 255   0   0
0.000223892    0.166755     0.39787 255   0   0
0.0318194  0.155751  0.294928 255   0   0
0.0452354  0.153449  0.251762 255   0   0
0.0498584  0.185937  0.287917 255   0   0
0.068696 0.174867 0.247549 255   0   0
0.0746647  0.200004  0.273072 255   0   0
0.0930991  0.187532  0.221324 255   0   0
 0.137078 0.0544847  0.151358 255   0   0
 0.165484 0.0580422  0.141612 255   0   0
 0.203539 0.0896301  0.179569 255   0   0
0.205196 0.104384 0.208304 255   0   0
0.204071 0.132016 0.231672 255   0   0
0.190313 0.166046 0.244473 255   0   0
0.170121 0.177087 0.225222 255   0   0
0.178572 0.196511 0.249668 255   0   0
0.150715 0.202672 0.237799 255   0   0
0.135825 0.214285 0.267281 255   0   0
0.121534 0.201474 0.230894 255   0   0
0.106923 0.224661 0.285184 255   0   0
0.098416 0.204638 0.251917 255   0   0
0.047196 0.151079 0.549102 255   0   0
0.0386463  0.108553  0.394177 255   0   0
0.075284 0.121465 0.537645 255   0   0
0.0577287  0.108025  0.505028 255   0   0
 0.054252 0.0772112  0.450882 255   0   0
0.0393626 0.0258157  0.699121 255   0   0
0.0232151  0.118974  0.198903 255   0   0
0.0407213  0.124871  0.225382 255   0   0
0.0559049  0.143121  0.200567 255   0   0
0.0603958  0.132768  0.278777 255   0   0
0.0676935  0.182181  0.201005 255   0   0
0.093009 0.147761 0.267266 255   0   0
 0.194606 0.0556492  0.149036 255   0   0
0.114271 0.162101 0.248656 255   0   0
0.135347 0.131576 0.250323 255   0   0
0.142006 0.105683 0.234948 255   0   0
0.132685 0.108187 0.192166 255   0   0
0.124224 0.111916 0.149149 255   0   0
0.174614 0.122841 0.362381 255   0   0
0.155281 0.120775 0.298683 255   0   0
0.156007 0.138322 0.327687 255   0   0
 0.135618 0.0678695  0.213227 255   0   0
 0.157388 0.0438131  0.211529 255   0   0
 0.167293 0.0337861  0.179705 255   0   0
 0.168358 0.0769153  0.167911 255   0   0
 0.173983 0.0874558  0.199053 255   0   0
 0.176845 0.0943396  0.229619 255   0   0
 0.176983 0.0975584  0.265259 255   0   0
  0.16579 0.0756968  0.111794 255   0   0
  0.22503 0.0634294   0.14425 255   0   0
