ply
format ascii 1.0
element vertex 158
property float x
property float y
property float z
property uchar red
property uchar green
property uchar blue
end_header
  0.0209246   0.0420668 0.000238704 0 0 0
    0.189013    0.0209087 -7.93168e-05 0 0 0
     0.16804    0.0209318 -0.000200212 0 0 0
    0.189006     0.146896 -3.14926e-05 0 0 0
   0.168039   0.0840392 2.40064e-05 0 0 0
   0.147019   0.0840104 -0.00024129 0 0 0
   0.126038   0.0840233 0.000137165 0 0 0
   0.0840211    0.0209941 -0.000144479 0 0 0
  0.0419331   0.0840091 -3.4033e-05 0 0 0
  0.0209118   0.0840438 0.000428849 0 0 0
    0.18906   0.0630487 3.75562e-05 0 0 0
    0.168064    0.0630498 -0.000244194 0 0 0
    0.147046    0.0630617 -6.34166e-05 0 0 0
    0.126056    0.0630657 -9.19131e-05 0 0 0
    0.105039    0.0630847 -2.79223e-05 0 0 0
   0.0840226    0.0631105 -3.11898e-05 0 0 0
   0.0630218    0.0630995 -0.000139667 0 0 0
  0.0630023   0.0840307 0.000116826 0 0 0
   0.0209089    0.0210499 -0.000253067 0 0 0
    0.125997     0.146891 -6.18334e-05 0 0 0
   0.105065   0.0420416 0.000144448 0 0 0
  0.0839799    0.084067 0.000154177 0 0 0
   0.041965   0.0209984 -0.00022251 0 0 0
   0.146967    0.146893 0.000140195 0 0 0
   0.126076   0.0420236 2.93531e-05 0 0 0
   0.0419652    0.0420395 -0.000208013 0 0 0
   0.063059   0.0420527 -0.00024875 0 0 0
   0.0840288    0.0420608 -0.000105983 0 0 0
    0.147049    0.0419972 -0.000173376 0 0 0
   0.104997   0.0840235 2.06679e-06 0 0 0
   0.0630397    0.0209993 -0.000131751 0 0 0
   0.167973    0.146889 6.92471e-05 0 0 0
     0.16806    0.0420104 -0.000129323 0 0 0
    0.189058     0.041981 -0.000232156 0 0 0
  0.0209135   0.0630944 0.000400974 0 0 0
   0.0419504    0.0630704 -8.27948e-05 0 0 0
    0.18903   0.0839817 0.000293294 0 0 0
  0.0208957    0.105009 0.000267779 0 0 0
   0.0419052     0.104987 -0.000161351 0 0 0
    0.062951     0.104999 -2.58657e-05 0 0 0
  0.0839432    0.105025 3.01529e-05 0 0 0
  0.105035  0.0209726 0.00012377 0 0 0
   0.104962    0.105009 0.000127932 0 0 0
    0.125988     0.104997 -0.000112317 0 0 0
   0.146988    0.104993 9.93215e-05 0 0 0
   0.168003    0.104981 2.63259e-05 0 0 0
   0.188987    0.104972 0.000191437 0 0 0
   0.0208942     0.125988 -0.000244508 0 0 0
  0.0419386    0.125982 7.72271e-05 0 0 0
 0.0629672   0.126015 0.00017512 0 0 0
  0.0839603    0.126004 0.000221428 0 0 0
    0.104966     0.126002 -0.000160583 0 0 0
   0.126029   0.0209662 0.000339058 0 0 0
    0.126004     0.126003 -0.000111661 0 0 0
    0.146964     0.125975 -7.75177e-05 0 0 0
   0.168019    0.126005 9.32432e-05 0 0 0
    0.18899    0.125962 0.000304434 0 0 0
   0.0210203     0.146858 -6.74832e-05 0 0 0
   0.0419698     0.146887 -0.000126978 0 0 0
    0.062994     0.146874 -0.000189149 0 0 0
    0.083978     0.146864 -0.000261861 0 0 0
    0.104992      0.14688 -0.000120409 0 0 0
   0.147007   0.0209558 0.000226612 0 0 0
  0.163344 0.00955616   0.140547 255   0   0
  0.142807 -0.0139341   0.137776 255   0   0
  0.124685 -0.0384787   0.141938 255   0   0
 0.0936911 -0.0372847   0.147387 255   0   0
 0.0651447 -0.0277816   0.151853 255   0   0
  0.034085 -0.0180671   0.154466 255   0   0
 0.00562669 -0.00670581    0.156427 255   0   0
-0.0135338  0.0180407   0.160782 255   0   0
-0.0186664  0.0485053   0.169566 255   0   0
-0.0151731  0.0701423   0.183105 255   0   0
-0.0142692  0.0741185   0.184801 255   0   0
-0.00944836   0.0835022    0.190811 255   0   0
0.0364515  0.148531  0.203395 255   0   0
0.104803 0.199341 0.196326 255   0   0
0.142162 0.200448 0.194298 255   0   0
0.153208 0.199223 0.192061 255   0   0
0.173032 0.196085 0.187098 255   0   0
 0.19727 0.189855 0.179219 255   0   0
0.223995 0.175394 0.171899 255   0   0
0.266216 0.141979 0.157179 255   0   0
0.262588 0.114038 0.150635 255   0   0
0.251489 0.178509 0.182068 255   0   0
0.247512 0.171983 0.150876 255   0   0
0.236807 0.174306 0.114849 255   0   0
  0.2097 0.170715   0.1045 255   0   0
0.175768 0.172543  0.10601 255   0   0
0.148162 0.167399 0.112703 255   0   0
 0.12294 0.159196 0.120589 255   0   0
0.0983885  0.144245  0.123766 255   0   0
0.0830663  0.120695  0.126929 255   0   0
0.0724026 0.0869491  0.126954 255   0   0
0.0668195 0.0572511  0.115077 255   0   0
0.0719206 0.0290928 0.0981891 255   0   0
 0.101465 0.0205063 0.0952876 255   0   0
0.130022 0.027589 0.101597 255   0   0
 0.150098 0.0476297  0.114243 255   0   0
0.0209115  0.101908  0.281376 255   0   0
0.0196657  0.102466  0.281587 255   0   0
0.0180549  0.103188  0.281802 255   0   0
0.0124604  0.110238  0.282183 255   0   0
0.0121798  0.110797  0.282151 255   0   0
0.0115676   0.11347  0.281225 255   0   0
0.0183493  0.123684  0.274167 255   0   0
0.0198052  0.125789  0.273002 255   0   0
0.0237458  0.130691  0.269764 255   0   0
0.0296325  0.137161  0.266287 255   0   0
0.0400251   0.15061  0.262778 255   0   0
0.042766 0.154537 0.262568 255   0   0
0.057861 0.174674 0.261179 255   0   0
0.0600291  0.176709  0.260835 255   0   0
0.0799793  0.190799  0.253693 255   0   0
0.0923743  0.198312  0.249329 255   0   0
 0.135725 0.0580431  0.146978 255   0   0
 0.172365 0.0553878  0.152416 255   0   0
 0.205511 0.0886491  0.182169 255   0   0
 0.20389 0.102672 0.202355 255   0   0
0.202713 0.126231 0.223192 255   0   0
 0.19051  0.15867 0.238412 255   0   0
0.178715 0.188051 0.245815 255   0   0
 0.17733 0.189419 0.246734 255   0   0
0.153028 0.204967 0.251421 255   0   0
 0.13291 0.206704 0.251808 255   0   0
0.123824 0.207541  0.25123 255   0   0
0.105667 0.204075 0.249906 255   0   0
0.0999404  0.202149  0.249312 255   0   0
0.0215323  0.101494  0.280985 255   0   0
0.0221411  0.101629  0.280591 255   0   0
0.0244524  0.101652  0.279881 255   0   0
0.0257916  0.102134    0.2794 255   0   0
0.0273634  0.102409  0.278878 255   0   0
0.031183 0.103443  0.27773 255   0   0
0.037333 0.106849 0.275923 255   0   0
0.0468923  0.113956  0.273917 255   0   0
0.0616668  0.125247  0.272433 255   0   0
0.0642038  0.126901  0.272329 255   0   0
0.0816633  0.141195  0.269508 255   0   0
0.0925427  0.149271  0.266907 255   0   0
 0.195491 0.0561495  0.150197 255   0   0
0.115656 0.160563 0.257682 255   0   0
0.130505 0.142924 0.246214 255   0   0
0.141759 0.111724 0.235225 255   0   0
 0.144079 0.0987654  0.232413 255   0   0
0.143192 0.101204 0.233689 255   0   0
0.141878 0.108669 0.236852 255   0   0
0.142095 0.112378 0.237315 255   0   0
0.142143 0.118073 0.237309 255   0   0
 0.138273 0.0817533  0.228172 255   0   0
 0.159955 0.0504869   0.21225 255   0   0
 0.167113 0.0325512  0.179112 255   0   0
 0.160754 0.0708283   0.14271 255   0   0
 0.164263 0.0748315  0.142964 255   0   0
  0.16552 0.0763131  0.142642 255   0   0
 0.166924 0.0773554  0.141811 255   0   0
 0.168926 0.0739674  0.138991 255   0   0
 0.227586 0.0628611  0.146221 255   0   0
